x	y	z
4.258721903	14.96684123	-0.434112978
4.987104999	14.92417149	-0.287299243
5.022435057	14.7286288	-0.284122852
4.557665478	14.80219688	-0.432077241
4.988621015	14.74174024	-0.434168738
3.010078875	8.678824115	0.006252711
3.023143062	8.619296241	-0.328546783
3.097253379	8.577007554	-0.328007599
3.055553198	8.23435756	0.005978398
3.079479065	8.060176849	-0.310358097
3.008603426	8.664128168	-0.082280841
3.034177787	8.652026027	-0.082253929
3.042875419	7.612041275	-0.29486533
2.983893911	8.096832778	-0.390791234
3.08392974	7.320815046	-0.285735061
2.948115978	7.706916689	-0.373690155
2.984100534	8.663970083	-0.167308269
3.067731027	8.829740108	0.168872626
3.048472723	8.677569508	-0.167928947
3.031023418	6.89753439	-0.270997186
3.120728469	8.628460062	-0.167527331
3.110313709	8.528030123	0.163995566
3.108826642	6.845260967	-0.270422032
2.929095444	7.066119839	-0.346409884
3.094897807	8.249097734	0.159172701
2.917654473	7.756911489	-0.45565256
2.959586812	7.017638772	-0.344916936
3.194775002	6.818671988	0.005125508
2.97341185	7.76030802	-0.456915224
3.005175028	8.704244667	-0.256892694
3.01775693	8.671558757	0.079646302
3.249776085	6.819355489	-0.271716108
3.037968667	7.725773984	-0.151572344
3.080941221	8.681149844	0.079906521
3.299831221	6.816377245	-0.272399058
3.347958858	6.816155676	0.005169071
3.073709087	6.872217304	-0.340935733
3.365749373	6.799578818	0.005164307
3.214432979	7.878643713	-0.467839891
3.100061797	6.826792332	-0.067263599
3.660198529	7.320443417	-0.59370769
3.40920391	6.7823729	0.005167029
3.139742785	6.849993372	-0.341252413
3.141491873	6.810524049	0.206878022
3.441912907	6.788353669	-0.273765018
3.046012412	8.0164718	-0.239240391
2.995670528	7.040941041	-0.139706505
3.679842246	7.139334929	-0.582638094
2.987688352	6.962805617	-0.138337371
3.604277897	6.940362378	-0.567299792
3.240250543	6.800168853	-0.067577582
3.064914809	7.073929061	-0.423866684
3.026500328	6.942780432	0.136828558
3.63176267	6.898352701	-0.280415048
3.025313979	7.608402107	-0.22842033
3.055065647	6.885405751	-0.137534154
3.08456036	6.901851579	0.136575671
3.677100089	6.831195752	-0.279049089
3.362823937	6.787298525	-0.067954358
3.132788184	6.936903872	-0.418486679
3.111685482	6.842433764	-0.137242062
3.722813226	6.807109926	-0.562814067
3.119225269	6.810446807	0.135329308
3.737408345	6.792685486	-0.278869351
3.143543793	6.801430196	-0.136803938
3.783868076	6.819023186	-0.56570811
3.466786668	6.786483586	-0.068367016
3.214724013	6.891603387	-0.418102408
3.494913028	6.790040954	-0.068510551
3.239251001	6.888936775	-0.418541575
2.94518871	6.861323068	0.064770086
3.83082525	6.764571849	-0.279624214
2.982092288	6.877382846	-0.2091227
3.870443974	6.744317167	0.005292955
3.593615887	6.819143787	-0.349079099
3.024638165	6.859870047	-0.209150595
3.97822955	6.868183938	-0.575764785
3.205889417	7.204500268	-0.508970913
3.221441551	7.180063268	-0.507940349
3.366114518	6.78459826	-0.13828261
3.244688271	7.172873799	-0.508133587
3.099058495	6.801315141	-0.208509204
4.051493764	6.800853683	-0.574245462
4.048372898	6.762881999	0.005365107
3.716115635	6.747466973	-0.348852899
3.149973591	6.802127389	-0.2091227
4.109648894	6.803184626	-0.576560685
3.992028892	7.151977788	-0.073480416
3.488962465	6.813045041	-0.420847291
3.192029206	6.794244507	0.065117052
4.12677175	6.745696119	-0.284440985
4.04273507	7.139530846	-0.073606003
3.54497856	6.818972478	-0.422549123
3.256057038	6.821457168	0.06556811
4.18915475	6.754218476	-0.285878828
3.555380306	6.745054826	-0.139213619
3.575795768	7.414673308	-0.531321284
3.274292104	6.752762468	0.065099699
4.366163794	6.94412161	-0.295045068
3.611792552	6.751323862	-0.139797789
3.629564931	7.409620752	-0.532545087
4.286177744	6.731199785	0.005431813
4.070965801	6.931732262	-0.364053842
3.350085014	6.750107503	0.065368606
4.355411434	6.787572806	-0.290084531
4.385976246	6.789288046	-0.29073154
3.42633698	6.788347716	-0.212134478
3.950203147	7.119146707	-0.148651523
3.897613653	7.657229138	-0.554573473
4.302408912	7.082239936	-0.074341614
3.496925013	6.772512414	-0.212636438
3.520321491	6.776925189	0.066244697
4.159111894	6.745774313	-0.358896372
4.182952896	6.744909371	-0.071201812
3.883425229	6.793561574	-0.430234844
4.09632482	7.122720186	-0.150020657
3.596830216	6.806007221	-0.496861752
4.62161248	6.782839274	-0.295224806
4.257690259	6.726402931	-0.071417112
3.960891398	6.783399325	-0.43188178
3.79052607	7.021017446	-0.222592008
4.694679864	6.75560816	-0.295907785
4.259851002	7.150958141	-0.15197396
3.716157967	6.778035267	-0.498922881
3.769501438	6.830923274	-0.217656044
3.748782557	6.754092651	0.067008024
4.132674836	6.834629926	-0.439128304
3.803042672	6.792837519	-0.217181978
4.343628063	7.092176342	-0.151846168
3.847784727	6.784539494	0.067658586
3.871467618	6.811330101	-0.505685981
4.556411351	6.770161545	-0.369573232
3.891104744	6.75431848	-0.217460838
3.921594706	6.768738462	0.067858091
4.253519738	6.750644631	-0.438689108
3.948108292	6.757071389	-0.218325329
4.670383036	6.75894003	-0.372061488
4.005114213	6.768502852	0.068222409
4.378655748	6.809472207	-0.445112164
4.338278508	6.708067387	-0.145858494
4.033214434	6.754040513	-0.50774711
5.1419611	6.760170156	-0.305505355
4.121150609	6.811173953	-0.222090048
4.097747917	6.735075694	0.068387216
4.154948201	6.81461825	-0.515154299
4.485909531	6.746494864	-0.445441539
4.905187392	6.782557228	-0.379073855
4.933615304	6.777975861	-0.379661974
4.965604105	6.778119189	-0.380521562
4.268042951	6.764430789	-0.516249296
4.322592147	6.763575077	-0.223930565
4.362794243	6.780544646	-0.224934486
4.368902769	6.74447585	-0.224181545
4.410323285	6.762857797	-0.225241241
5.190207805	6.774600842	-0.386493352
4.785306915	6.695272551	-0.45246848
4.733628654	7.109523046	-0.551288541
4.760418871	7.102427704	-0.551868198
4.927288909	6.761499417	-0.459989483
4.61430446	6.754080793	-0.228197244
5.380072548	6.718506935	-0.389795956
5.066693603	6.776494596	-0.4652048
5.160621945	6.814529899	-0.46998092
5.535651945	6.741536714	-0.395043906
5.558854285	6.727602563	-0.395224866
5.643974351	6.788099012	-0.399794188
5.61349092	6.709456892	-0.396174905
6.105617586	6.738416602	-0.327072998
5.719771215	6.751872908	-0.400744256
5.344812527	6.751459976	-0.47343948
5.380432437	6.753773254	-0.47475704
5.415491996	6.755153026	-0.476019675
5.444968193	6.74938659	-0.476788248
6.299123199	6.699883799	-0.33077543
5.675604403	7.484950839	-0.606294987
5.176527714	6.788110466	-0.238152814
6.042498762	6.78780076	-0.411556837
6.484186361	6.729305014	-0.336131384
5.241238218	6.74333667	-0.23826435
5.821678645	7.390972736	-0.607261177
5.755621381	6.744595816	-0.487493331
6.652152826	6.694979702	-0.33947437
6.229713502	6.702577134	-0.414407012
6.317799069	6.755666489	-0.418885854
5.439668276	6.696733537	-0.240690497
6.836485231	6.713674532	-0.344650616
6.368350013	6.694193052	0.254854531
5.96002539	7.241138153	-0.605328855
6.85890119	6.653508849	-0.343716015
5.609079819	6.734706139	-0.244510991
6.096819068	6.757338407	-0.500394339
6.545156319	6.70421731	-0.424314794
7.324703806	6.932934234	-0.362767418
7.144656469	6.726723749	0.006679497
6.266033454	7.333536856	-0.622590837
7.326225546	6.84963983	-0.36075442
5.758897094	6.661324279	-0.245654342
7.254732435	6.705479274	0.006724421
6.523879605	7.448265034	-0.639079866
7.252468666	6.61576511	-0.353097935
7.33835804	6.658583863	0.006744842
6.867629707	6.656540457	-0.433136758
7.295928035	6.533401777	-0.35227116
7.633211023	6.793351694	-0.367548218
7.210843058	6.861620533	-0.450780746
7.032537316	6.657005963	-0.086873922
6.729185503	6.801182371	-0.526031668
7.161431838	6.567706714	-0.440058616
7.305319806	6.664589835	-0.088712957
6.928843869	6.755956043	-0.176691396
6.932306381	6.717967341	-0.176253272
7.406574088	6.633095118	-0.089197379
6.990008557	6.691207235	-0.176673142
7.341371885	6.978171275	-0.556884284
7.115551661	6.733379999	0.176982986
6.867905082	6.932819697	-0.629869219
7.119119976	6.643268753	-0.535364324
7.124093693	6.607138106	-0.534211452
7.596996131	7.008871812	-0.188721535
7.176480901	6.533895285	-0.533607597
7.671286519	6.905083359	-0.188447711
7.143702592	6.828213712	-0.275688363
7.858502357	6.85205784	-0.573243851
7.157855633	6.671152638	-0.631543871
7.262295906	6.690146418	-0.275465262
7.888754673	6.709821958	-0.56940102
6.981041578	6.274439368	-0.261856539
7.041359345	6.851205084	-0.169648174
3.973222503	6.765520823	-0.124088608
3.341621673	6.847370625	0.1715173
3.316697086	6.778908384	-0.103605826
12.17837777	8.357826563	-0.531282415
12.22038167	8.067193983	0.009967174
12.2475831	8.031309244	0.009969215
12.27719278	7.996971183	0.009973299
11.75349733	7.294428385	-0.497565021
11.80313841	9.190374899	-0.417325151
12.25545583	8.083784525	-0.131710339
9.717867019	5.867130949	-0.40831103
9.792828806	5.877047219	0.007774027
11.72681724	7.328547064	-0.124058191
11.76114084	7.299917848	-0.124183778
10.44381865	5.924072519	0.008172905
11.78560147	8.44405153	-0.404469353
11.79435112	8.39568073	-0.403883738
12.30312848	8.051545696	-0.268459944
10.74081	5.919511767	0.008347839
10.91928611	5.930817247	0.00845811
11.3611985	6.664201223	-0.596501794
11.444249	6.618871742	-0.59871861
11.25660469	5.936315427	0.008662312
11.47576345	6.590197293	-0.599306729
12.18859746	8.189693239	0.127380295
11.28504917	6.434716805	-0.588313189
11.31256063	6.404493557	-0.588720348
12.27011109	8.124845557	-0.41054867
11.23598277	6.277101483	-0.115464095
9.810623102	5.951446471	-0.630886668
12.30188715	7.994682888	0.127267537
12.39869235	7.949814236	0.127761958
11.32931262	6.644069638	-0.239799393
12.02364841	5.831086082	0.009095904
11.7100911	7.29715092	-0.384920758
11.26598235	6.428177274	0.234333577
11.72647286	7.257508364	-0.384725553
11.78160958	7.251655462	0.120007245
11.20010145	5.262915874	0.008423395
11.16271975	5.20360167	0.008383235
11.42054541	5.832874511	-0.580757943
11.13324911	5.148344041	0.008349201
11.15664851	5.112020032	-0.441417327
11.18137709	5.081902723	-0.441776802
11.32851889	6.679101072	-0.366878015
11.82786816	5.820569772	-0.118263002
11.96292697	6.394670127	0.245063098
12.02488357	6.380432576	0.245930137
11.68200238	5.13741318	-0.459030887
11.26220625	6.464225592	0.112642867
11.19102961	5.373555499	-0.562209156
11.72976463	5.078588884	0.00870043
11.19754226	5.334470469	-0.561711517
11.23152737	5.31468113	-0.111472059
12.10227608	6.232388251	0.245930137
11.33682109	6.359951881	-0.362639231
11.18234343	5.207671806	-0.110664677
11.36091256	6.291196265	0.112651547
11.42923083	6.283289334	0.113137295
11.13907449	5.098470247	-0.55478963
11.22470496	5.096070927	-0.558273223
11.99045341	6.486865795	-0.380319429
11.20796415	5.011855602	-0.110144366
11.69068143	5.141869252	-0.114575978
11.69356954	5.100381552	-0.114450384
11.97370703	6.251614145	0.117170794
12.04745392	6.233823629	-0.378423137
12.04385356	6.194491769	0.117483063
11.37299474	5.796643268	-0.356113744
11.1806172	5.157759119	-0.224811924
11.99207977	4.963527706	-0.58777031
11.61401455	4.278397957	-0.445191671
12.04211297	4.904276445	-0.116648246
11.77051171	4.213424899	-0.449684909
11.1942019	5.405892909	-0.346799565
11.90442414	4.143746314	0.008579951
11.23624914	5.299224402	-0.346576465
11.24702176	5.262185212	-0.346409154
11.18135805	5.198013724	0.106961286
11.1863565	5.158660233	0.106857194
11.17939716	5.11391764	0.106640337
11.5240989	4.248615546	0.338785857
11.17416874	5.06189939	-0.34222613
11.19323902	5.0374285	0.10647553
11.09508062	3.55924389	0.007931264
11.07163578	3.514296469	0.00790676
11.05374363	3.471324293	0.007886339
11.70529891	5.096077952	0.110743223
11.87538971	4.163502148	-0.569900122
11.69779348	4.553923043	0.226783173
11.18661666	3.432658458	-0.42089214
11.84060417	4.075905735	-0.112342227
11.72961405	4.978752075	0.110535046
11.94346949	4.06432565	-0.571347859
11.72547906	4.934597397	0.110352887
11.7064175	4.884354055	0.110031946
12.06204576	4.980716155	-0.364061457
12.01528766	4.918315458	-0.36219306
12.06644461	4.8960874	-0.363280636
11.71260564	4.719030129	0.109537517
11.14994597	3.537145408	0.322655827
11.78547841	4.171380687	-0.228262139
11.0976515	3.443204971	-0.104241531
11.91981786	4.141933515	0.227975341
11.14249122	3.382307466	-0.104465801
11.10524188	3.336360891	0.319843412
11.16537011	3.346353436	-0.527871278
11.69941105	4.383156905	0.108375175
11.31690991	3.286701684	0.325054646
11.67016848	4.282638653	-0.346799565
11.72046568	4.268448863	0.108201688
11.13898363	3.566735432	0.211303027
11.74204474	4.186797984	-0.34777562
11.78187935	4.168400751	0.108409872
11.06342684	3.430601742	0.209261881
11.06816451	3.394884296	0.209153505
11.9553926	4.057269302	-0.35220961
11.23313676	3.332685383	0.211682351
11.67647529	2.851087245	-0.10782988
11.04153377	3.491991807	0.100455647
11.10679965	3.430376697	-0.324294967
11.088504	3.394904139	0.100594437
11.69351739	2.877323136	-0.335951638
11.38277388	-3.063663473	0.438215625
11.42649266	-3.006278512	0.646101205
11.32829375	-3.097297401	0.212170051
11.47091779	-2.952941336	0.535388162
11.45290476	-3.060971338	0.535839727
11.42619882	-3.129076415	0.535478463
11.73524507	4.795164735	0.217894406
11.29561457	5.082273694	-0.234297843
6.250116145	5.567127977	0.005697278
6.245999203	5.422887149	-0.297525337
6.369745583	5.432926697	0.005698639
6.505065549	5.475093917	-0.305828889
6.432294614	5.318013375	0.005680942
6.461307124	5.304179622	-0.300688585
6.30364564	5.507454412	-0.075095173
6.521696278	5.225599692	0.005688429
6.347236748	5.443345086	-0.075014431
6.207964139	5.692214848	-0.153781218
6.51792373	5.120373126	-0.298136433
6.790658492	5.272127907	0.005851792
6.212518886	5.557608871	-0.152193022
6.245231704	5.552473885	-0.15257637
6.458799337	5.302616028	-0.074969578
7.118767938	5.388161803	0.006077096
7.130504343	5.358041345	-0.320818385
6.515894974	5.249847357	-0.075068254
7.305725281	5.413960365	-0.659618982
6.349413557	5.439180701	-0.1526494
6.542758536	5.172909587	-0.074826043
7.359814367	5.360421821	0.006197576
7.227776419	5.253835091	-0.648187587
6.235373752	5.569758203	-0.233244744
7.235761469	5.542589019	-0.0817695
7.253086546	5.523033635	0.251463086
7.140637133	5.395433376	-0.405313578
6.493274332	5.25866565	-0.152558116
7.179384232	5.782482729	0.166542472
6.331535059	5.449477049	-0.233049539
7.288263339	5.372861642	-0.081231248
7.280934602	5.754598639	0.167662399
7.294861672	5.311287552	0.248898835
6.825996718	5.351850654	-0.476898039
6.506054048	5.068849832	-0.453456635
6.410542942	5.348513423	-0.232910094
7.317095555	5.191290765	0.247465045
7.309293533	5.152116057	0.246665448
6.879282011	5.455195096	-0.566682633
7.219531702	5.276984157	-0.491665596
6.493844441	5.084959129	-0.532351849
7.300821281	5.243256591	0.162387939
6.808898746	5.234878591	-0.239602921
7.333238204	5.164900335	0.16204475
7.131317703	5.379061519	-0.249195946
7.166184625	5.370946267	-0.249837351
7.253130263	5.397699901	-0.583558139
7.222795612	5.282972524	0.077625213
6.149251066	5.600640805	0.160242207
15.49265996	9.880405294	-0.660939803
15.38564462	9.869826037	-0.827818718
15.50698014	9.795791749	-0.511693878
14.67627321	4.957618514	0.010544389
13.95883143	4.661105507	-0.52934133
14.02639953	4.493116577	-0.529772689
14.15982089	4.680702457	-0.133791584
15.1055069	4.18254519	-0.563777616
14.29725513	3.870882918	0.010082208
14.77524607	3.848086927	-0.549183538
14.19320717	4.213416325	-0.132822726
14.01624307	4.672460391	-0.269756047
15.09212423	3.782637373	-0.559643855
14.24503899	3.71069584	-0.132060204
14.63258523	4.925759381	0.133929295
14.42357979	3.662846313	-0.133504514
14.01087286	4.611469423	-0.41149683
14.241479	3.841712747	-0.269317923
15.04491985	4.195372106	-0.43573041
14.32939487	3.91064677	0.128846241
14.94410123	3.921225832	-0.431017531
14.83809778	3.805911455	0.132879732
3.83981542	0.944981346	-0.43279637
3.575365928	0.862807046	0.002503535
3.797077501	0.897481734	-0.427030098
3.805419232	0.874834534	-0.427356493
3.861042838	0.877922711	-0.287231247
3.8374406	0.860182905	-0.285277793
3.945764398	0.873926362	-0.145365779
3.494401768	0.76425103	0.002434786
3.548153022	0.767135812	0.26779084
3.842852796	0.787400387	-0.284554282
3.596499173	0.867284158	0.102046587
3.515722556	0.701366134	0.002440232
3.799594709	0.739480416	-0.423657369
3.359885175	0.777574755	0.09512584
3.808679731	0.729128329	-0.424418967
3.35738222	0.766151097	0.094987974
3.80796808	0.716888293	-0.424092572
3.360692095	0.756066588	0.095015549
3.810149588	0.705202243	-0.424092572
3.678681706	0.676767736	0.139050615
3.848082731	0.702726137	-0.28375844
3.500481631	0.631562796	0.002421173
3.573172317	0.771345743	0.234595473
3.65036382	0.774298301	0.102928915
3.304148798	0.563365978	-0.120563006
3.629589184	0.746648689	0.102212027
3.619525264	0.597227075	0.136375856
3.954857213	0.647240676	-0.290704081
3.611917092	0.857861521	0.067068571
3.25158605	0.513424568	-0.118406249
3.606396895	0.833207312	0.066869872
3.248746721	0.49256473	-0.118190569
3.635839057	0.678429838	0.10201902
3.83450969	0.71100019	-0.320285044
3.588723014	0.785749385	0.335241274
3.928343275	0.556568034	-0.287810066
3.412585912	0.604324091	0.095594578
3.405560543	0.592309982	0.095346422
3.397508027	0.580176425	0.095070698
3.543474891	0.730392597	0.3301522
3.371567405	0.438780274	0.002314306
3.097618405	0.396984067	0.345439296
3.349089025	0.425410132	0.00229797
3.091917827	0.386615582	0.344669681
3.605998758	0.854503058	0.0321465
3.071383522	0.374481394	0.342250954
3.551153862	0.830008417	0.031634727
3.819136345	0.887443263	-0.397646981
3.074491959	0.365291281	0.342470835
3.602404224	0.830339614	0.032068433
3.612991233	0.685815135	0.20109783
3.833243618	0.865965841	-0.398555087
3.06639065	0.343906806	0.227622226
3.310499353	0.367599055	-0.119808142
3.05751728	0.33341652	0.226886541
3.391148322	0.367462796	0.002321794
4.176446548	0.60327918	-0.346559397
3.051069092	0.324590903	0.339392435
3.513636011	0.764595078	0.031192342
3.552483744	0.630545038	0.329243438
3.50129892	0.750667406	0.031062229
3.050460724	0.305609063	0.452871838
3.499672018	0.739095546	0.031027535
3.066788143	0.297744472	0.340821695
3.289883096	0.314304273	-0.118873542
3.058300018	0.286105834	0.226592258
3.842841033	0.783196897	-0.253132818
3.043286157	0.276463674	0.567134719
3.066577606	0.278741443	0.340601813
3.514168252	0.708434996	0.031096926
3.054224278	0.380961702	0.424300694
3.400685856	0.547254903	0.062227638
3.811764672	0.751150953	-0.394014584
3.047884839	0.256857133	0.225635857
3.842049504	0.746272982	-0.252617535
3.038842038	0.247882753	0.565857391
3.048634389	0.361281528	0.423208172
3.04992973	0.246643898	0.113751796
3.870786483	0.739538533	-0.25435662
3.068154834	0.240962199	0.454625438
3.079350581	0.353929137	0.198922614
3.834787049	0.720473334	-0.251844612
3.066544777	0.344337329	0.425393188
3.056368425	0.228297419	0.113937546
3.050845521	0.333099826	0.423071617
3.086424663	0.335567262	0.19924284
4.005553116	0.428779419	-0.330843918
3.051463743	0.211251867	0.567682129
3.064915118	0.212344364	0.339832227
3.049735966	0.208993037	0.11364035
3.328723152	0.223734184	-0.242012212
3.065945344	0.202966351	0.453894775
3.076974784	0.202348092	0.227475092
3.089463856	0.201057465	0.00210738
3.32143132	0.213010086	-0.241433421
3.048853448	0.304514209	0.422388815
3.047968584	0.190089672	0.113528904
4.131419591	0.555263116	-0.381643455
3.025313071	0.293804397	0.533438143
3.1676115	0.424051175	0.40951373
3.502593241	0.597193418	0.290560448
3.033574275	0.179850606	0.112971661
3.5307653	0.337480568	-0.031819683
3.322180398	0.438075677	-0.184237356
3.88893241	0.655383623	-0.399967688
3.518783778	0.590618283	0.423059167
3.075719885	0.173850959	0.227254377
3.07862483	0.285385405	0.085282386
3.281173944	0.423944699	-0.060406228
3.347282047	0.554746712	-0.218995329
3.129346647	0.168621761	0.346648645
3.052321894	0.275116002	0.196681048
3.351746971	0.423920007	0.061035471
3.310053582	0.539274724	-0.09356003
3.343715906	0.17326725	-0.242880442
3.074625791	0.156214488	0.454771588
3.053930072	0.266247748	0.308518921
3.462361429	0.428594515	0.19077812
3.363873995	0.539561829	0.029552923
3.400673315	0.167544066	-0.122468149
3.584846982	0.306041715	-0.295484029
3.062171094	0.146003556	0.568959455
3.045268786	0.257044834	0.421296293
3.06777442	0.371283937	0.28198798
3.473664557	0.546618953	0.158941244
3.051685791	0.142247422	0.002079472
3.293354927	0.27254439	-0.149657037
4.020785008	0.477725955	-0.370702873
3.030445454	0.24744408	0.533610996
3.047660644	0.36049866	0.39324503
3.512326703	0.543548596	0.290641957
3.065926504	0.134611821	0.114086141
3.444820998	0.276013986	-0.031003334
3.311648385	0.385103837	-0.183304081
4.248647645	0.64914798	-0.435888098
3.034136218	0.238377082	0.534129558
3.052693665	0.351600849	0.393753427
3.51594845	0.533069167	0.290804975
3.05733875	0.124838135	0.113751796
3.440666506	0.265060096	-0.030958481
3.314798685	0.375166604	-0.183413888
4.243731661	0.635079498	-0.435181783
3.030924483	0.22877083	0.533438142
3.037000919	0.340355671	0.39159273
3.523482606	0.523158161	0.291294001
3.05471144	0.115344635	0.11364035
3.461408136	0.25597799	-0.031137898
3.316926617	0.365104448	-0.183468784
4.248613209	0.622489597	-0.435484485
3.037506461	0.219897717	0.534475265
3.032114457	0.330392027	0.390830148
3.489563839	0.507185033	0.288359873
3.041069171	0.105487376	0.113120255
3.4522027	0.244650473	-0.03104819
3.3120741	0.354289313	-0.183139393
4.248533703	0.609169685	-0.435282695
3.0225185	0.321566847	0.503525601
3.505675415	0.500297097	0.419880035
3.126905421	0.099844396	0.230785683
3.040819507	0.206762419	0.084069186
3.284623322	0.342670505	-0.060296697
3.362852769	0.472850055	-0.219188553
3.136516451	0.091889387	0.347088408
3.056162612	0.199995093	0.196552957
3.435744673	0.349117043	0.06239021
3.234158787	0.445733128	-0.091078115
3.3589253	0.091482018	-0.243748644
3.126847567	0.082005671	0.345989
3.05775791	0.190680079	0.196617003
3.469635123	0.341809491	0.062986294
3.247399007	0.437410003	-0.09141275
3.351213302	0.080983792	-0.243169824
3.033205561	0.294497397	0.504833029
3.141006524	0.418794636	0.37572551
3.151620907	0.07160455	0.232551338
3.03560837	0.178356296	0.083876178
3.29161942	0.312803493	-0.060369713
3.353210106	0.440061246	-0.218286809
3.042488786	0.17339099	0.534821029
3.037813158	0.283935232	0.390957225
3.184601099	0.413084667	0.262604707
3.034336374	0.058672822	0.112823059
3.095117866	0.171675713	-0.027809704
3.318113381	0.303534019	-0.18319429
4.118228451	0.526150986	-0.421055781
3.060293327	0.051919965	0.568047086
3.044796062	0.163139827	0.420340354
3.037053835	0.273345759	0.278262064
3.449151848	0.434809932	0.157135089
3.027616516	0.048141355	0.002061094
3.265248172	0.169579719	-0.148073596
3.615907414	0.317493613	-0.332319718
3.084601875	0.384053713	0.484820153
3.165384327	0.044155079	0.350166808
3.06385419	0.153341864	0.196873183
3.085070564	0.265741603	0.055941654
3.304118003	0.40383258	-0.092862864
3.345971004	0.039782006	-0.242735723
3.072486778	0.146743981	0.539833899
3.04919331	0.256712826	0.392101127
3.067545433	0.36922604	0.252661281
3.068722712	0.031087223	0.114086141
3.077587886	0.142304179	-0.027639257
3.313800578	0.272409433	-0.182810004
4.07152087	0.482141714	-0.415808992
3.337677114	0.026076234	0.4930589
3.391563125	0.149361376	0.341663903
3.02869192	0.243449995	0.166152789
3.399831251	0.396478552	0.029691709
3.419721217	0.021464641	-0.123007333
3.51302959	0.148383557	-0.288772217
3.057577425	0.352143054	0.48004284
3.137826765	0.014887746	0.347088408
3.038213633	0.124037292	0.195143978
3.078413842	0.236646398	0.055779086
3.295775312	0.372059603	-0.092528222
3.319266196	0.008912517	-0.24078227
3.03587881	0.229071509	0.504342721
3.054530836	0.340680681	0.364421966
3.384800144	0.004198084	0.249692903
3.035741561	0.113016702	0.083793455
3.422221419	0.251195884	-0.062651602
3.317246864	0.363066912	-0.21538834
3.065197089	0.108714592	0.538278158
3.05903937	0.219772753	0.392990816
3.057972526	0.330057418	0.25152021
3.043890507	-0.006519555	0.113157404
3.04912088	0.103508933	-0.027370131
3.299960752	0.2305405	-0.181876743
4.091971348	0.433714533	-0.417322474
3.081349809	-0.013902147	0.571879069
3.471369682	0.111305837	0.478789264
3.078984469	0.210578959	0.281624482
3.07317427	0.320536399	0.139660587
3.04995187	-0.017007705	0.002076069
3.398942282	0.103401739	-0.15400016
3.609967482	0.238982748	-0.331225674
3.096310642	-0.023307232	0.457402001
3.45014546	0.098945718	0.347371673
3.02509504	0.196510536	0.165770574
3.375666029	0.341263841	0.029431485
3.399661736	-0.030812548	-0.122288411
3.415263861	0.09180104	-0.280587069
3.046888328	0.303633144	0.477577116
3.123771527	-0.033098345	0.345549236
3.092632901	0.078765552	0.198538343
3.044757299	0.187128795	0.055110747
3.285176025	0.319911083	-0.092082036
3.346936813	-0.042356835	-0.242808083
3.083040119	0.071479829	0.541216728
3.05160455	0.181627768	0.391719836
3.043933773	0.290800406	0.25005316
3.044580458	-0.043886687	0.113194552
3.042163687	0.065910456	-0.027298363
3.294566517	0.189568683	-0.181437561
4.10590054	0.384301506	-0.41823058
3.119704149	-0.052201147	0.460909257
3.138547479	0.061105719	0.315928971
3.029766316	0.168826649	0.165934382
3.345803413	0.307163809	0.029145237
3.408226942	-0.062265186	-0.12261193
3.426925506	0.0605576	-0.281487427
3.095238218	0.052762753	0.543291028
3.159633493	0.168608428	0.405446548
3.059558736	0.273359421	0.251194202
3.065235002	-0.062998267	0.113974695
3.047510039	0.047320479	-0.027343217
3.305639482	0.169862444	-0.181986535
4.104216785	0.3587544	-0.417826996
3.05235339	0.266392107	0.47788533
3.14598484	-0.071952048	0.348077904
3.502489243	0.046205477	0.224796647
3.044827095	0.149652674	0.055074623
3.296822566	0.280250173	-0.092305129
3.375080145	-0.08414661	-0.244906256
3.057734585	-0.079480488	0.567682128
3.107437007	0.032869335	0.428397562
3.442903752	0.161281086	0.314521567
3.051472466	0.252165254	0.138396283
3.023892579	-0.081822475	0.002059052
3.374406499	0.030156631	-0.152823892
3.567509289	0.159318792	-0.326940607
3.068087422	0.137027204	0.508755313
3.06057424	0.24658397	0.36406872
3.341468137	-0.098399045	0.246602999
3.030782465	0.019797035	0.083600447
3.392354888	0.144569174	-0.061994423
3.324832953	0.260983983	-0.215259519
3.051720817	0.23805718	0.477423036
3.160090655	-0.101381937	0.349727045
3.394988776	0.013537698	0.217879827
3.039082256	0.121343271	0.054948179
3.343119704	0.253217042	-0.093532143
3.331300179	-0.113742977	-0.241795162
3.305070325	-0.116184462	0.488528709
3.142125365	0.00332813	0.316229379
3.048325755	0.113625044	0.166808008
3.086608913	0.22616201	0.02684658
3.406503389	-0.12498895	-0.12261193
3.562006628	-0.002630515	-0.292537384
3.046704104	-0.116621529	0.565857391
3.188837886	-0.005403828	0.439595723
3.466519434	0.119775768	0.316520826
3.038392816	0.213579226	0.13767383
3.036649925	-0.119474526	0.002068582
3.414481419	-0.011388072	-0.154633534
3.458716059	0.111951943	-0.316820602
3.099118995	0.100324332	0.513658211
3.055443754	0.208466684	0.363126757
3.344990978	-0.139604519	0.246970848
3.031796923	-0.017402558	0.083628022
3.043093521	0.092290462	-0.055586872
3.313845007	0.219241226	-0.214357776
3.2178796	-0.142783437	0.475815008
3.126103973	-0.025461704	0.314627206
3.062217743	0.085928292	0.167517824
3.067603482	0.19640232	0.026664423
3.399218937	-0.156061279	-0.122396251
3.533926837	-0.035136792	-0.290245554
3.098690188	0.081280739	0.513494776
3.071532428	0.190637649	0.364892933
3.145837874	-0.150634224	0.232330636
3.045626867	-0.036171184	0.084014037
3.065592328	0.074148535	-0.055988485
3.319112265	0.199142788	-0.214615416
3.04602554	-0.154050162	0.566039842
3.177635525	-0.04438318	0.438093537
3.340289587	0.074389132	0.304888711
3.01385773	0.174716397	0.136454676
3.042944381	-0.157142471	0.002074027
3.39610508	-0.053007523	-0.1538192
3.449872976	0.069299752	-0.31590886
3.098423246	0.173228757	0.367954317
3.066183164	-0.165682848	0.226518691
3.051344303	-0.054966141	0.084179477
3.052993934	0.055102461	-0.055751165
3.3132963	0.178397782	-0.214164551
3.046991983	-0.172688966	0.45082594
3.135503792	-0.064025017	0.315628564
3.074024004	0.048517027	0.168118446
3.045815599	0.157503952	0.026456242
3.395052608	-0.19764701	-0.122324368
3.393733783	-0.075401566	-0.278786324
3.132157746	0.155842426	0.371839913
3.03723522	-0.182815719	0.224458755
3.014973629	-0.072818899	0.083186858
3.083267417	0.03672586	-0.05629882
3.3053576	0.15763657	-0.213584852
3.067080012	-0.079475658	0.538451013
3.143130604	0.032567947	0.40277748
3.146132328	0.145322264	0.257551485
3.011832682	-0.191512103	0.112191518
3.047730754	-0.083605348	-0.02735219
3.27493841	0.027474214	-0.180065105
3.023682608	-0.199461281	0.56239031
3.231042201	-0.094716879	0.445604497
3.136890815	0.021728886	0.286259131
3.063092567	0.130463628	0.1385769
3.07409988	-0.206074444	0.00209717
3.37791789	-0.104569372	-0.153050106
3.392772367	0.016099212	-0.310620944
3.103827318	0.127434997	0.484511936
3.060017689	-0.211128001	0.339282494
3.332344602	-0.109433548	0.2139731
2.999496234	0.009271079	0.054189527
3.432080982	0.133172671	-0.09581886
3.316897334	-0.235716212	-0.24121637
3.124938017	0.118699577	0.487748172
3.045476538	-0.219514616	0.337743323
3.164446228	-0.113639669	0.203213598
2.995511305	6.86e-5	0.054117272
3.396510395	0.121357596	-0.094814939
3.315163891	-0.245817451	-0.241144011
3.109488143	0.108560252	0.485282447
3.043797561	-0.228782482	0.337633353
3.095276488	-0.120665214	0.198794524
3.007495394	-0.009158014	0.054334031
3.398864794	0.111001937	-0.094870706
3.323344104	-0.256678308	-0.241795162
3.104868874	0.098862736	0.484511937
3.034163002	-0.237421802	0.336643885
3.097882877	-0.13028662	0.198986659
3.012452078	-0.018415396	0.054424347
3.398190303	0.100544282	-0.094842819
3.353360334	-0.269348451	-0.244038025
3.110520075	-0.023400617	0.515292511
3.139745221	0.088686473	0.372428657
3.01471753	-0.246532282	0.223134518
3.01271463	-0.1375459	0.083186858
3.071347479	-0.029378181	-0.056079758
3.299002161	0.086385613	-0.213005152
3.034166934	-0.143873849	0.533092436
3.168892934	-0.03522203	0.406082053
3.136571058	0.077433285	0.256573432
3.029926849	-0.25809506	0.113045958
3.060214227	-0.149766473	-0.027486753
3.3456602	-0.043786141	-0.183962862
3.003030718	-0.262973745	0.559470752
3.120423569	-0.158597685	0.430719131
3.107757085	-0.045217809	0.283623741
3.06119296	0.06457218	0.138396283
3.367793994	-0.298529238	0.002301374
3.385867115	-0.17765873	-0.153547746
3.357486329	-0.056178061	-0.307429921
3.02465171	-0.274060652	0.448633919
3.107713616	-0.168491361	0.313225304
3.077904065	-0.055303521	0.168336852
3.017401947	0.054071554	0.026178667
3.286936775	-0.302916581	-0.11872976
3.445976989	-0.193044637	-0.283451876
3.47253837	0.057269551	0.541685548
3.015320218	-0.282544577	0.334994744
3.054671532	-0.175444235	0.196360822
3.034806202	-0.065115148	0.054839799
3.431317052	0.048862372	-0.095735197
3.286285613	-0.314763676	-0.239479968
3.015458654	-0.180098648	0.530153867
3.171196797	-0.074176149	0.406463343
3.149244267	0.03908533	0.257551485
3.012607169	-0.293899088	0.112525862
3.039182058	-0.18614723	-0.027316306
3.313927446	-0.084054393	-0.182261029
4.205196295	0.044116312	-0.42650439
2.987548576	-0.298445487	0.443519186
3.070284136	-0.194818596	0.309620415
3.070277645	-0.08343957	0.167954637
3.016772021	0.026289122	0.026169993
3.258159071	-0.330533405	-0.11779516
3.441070885	-0.22455769	-0.283206307
3.324278876	-0.096426616	0.550920114
3.143904719	0.021263027	0.372781875
2.992856303	-0.30957198	0.221957416
3.022032221	-0.203080756	0.083545305
3.067010466	-0.095232681	-0.056024992
3.335023348	0.01568694	-0.215259519
3.015280348	-0.320073318	0.562755268
3.066574533	-0.212514781	0.423754448
3.304467175	-0.108943861	0.301708058
3.060863819	0.008212006	0.138351132
3.385591628	-0.363027515	0.00231771
3.30828464	-0.234719673	-0.150199917
3.442467786	-0.121012569	-0.315361839
3.262552849	0.003754634	0.508860793
3.015571782	-0.329303462	0.335544449
3.013799191	-0.219524892	0.193927134
3.012468044	-0.110886666	0.054460475
3.40467321	-0.003747349	-0.094982256
3.348476435	-0.372636945	-0.244399795
3.007430259	-0.225963214	0.529289541
3.142924941	-0.121774199	0.403031665
3.30495363	-0.009681645	0.270266049
3.028597189	-0.342433258	0.113306005
3.449738337	-0.264464409	-0.031039216
3.301273908	-0.134430642	-0.181657145
4.133746757	-0.020045886	-0.419239598
3.02389426	-0.349000733	0.449656855
3.035194061	-0.239387979	0.306416041
3.044694059	-0.12950697	0.1666442
3.035819263	-0.02011474	0.026334804
3.260646492	-0.381400929	-0.11808273
3.398478109	-0.274188766	-0.28001409
3.05728608	-0.135644236	0.506957634
3.149819095	-0.02701558	0.37348834
3.010532577	-0.358153307	0.223649502
3.019557827	-0.249494744	0.083572873
3.16106956	-0.146717174	-0.057777485
3.318905911	-0.035301695	-0.214228955
2.984639736	-0.363199634	0.558010917
3.017547589	-0.255681257	0.417472537
3.128334581	-0.151205302	0.285804764
3.080607757	-0.038993056	0.139254203
3.362751487	-0.412845566	0.002306138
3.268465171	-0.282343398	-0.148571249
3.453135894	-0.174456268	-0.316547077
3.105141789	-0.044061754	0.484357801
3.020028639	-0.376751609	0.336643885
3.022006113	-0.266781429	0.194695662
3.042364039	-0.158749699	0.055038495
3.416209	-0.056169093	-0.095316899
3.347313896	-0.424583596	-0.244761536
2.995762978	-0.271357407	0.527906712
3.312033563	-0.179242883	0.42501982
3.169887824	-0.057917865	0.259263062
3.463056161	-0.445455492	0.129800391
3.40345472	-0.313497321	-0.03066244
3.2748974	-0.183711557	-0.1803396
3.0012585	-0.282145113	0.415560658
3.096983945	-0.178274385	0.283078478
3.066135948	-0.067038849	0.138622051
3.34988691	-0.442599139	0.002300012
3.2677171	-0.312603856	-0.14866173
3.598505056	-0.215021621	-0.330040436
3.338709386	-0.07811623	0.520881141
3.022343863	-0.405323935	0.33730353
3.011476988	-0.293808705	0.194183315
3.031792391	-0.186192558	0.054875927
3.407553163	-0.087403615	-0.095093806
3.321522752	-0.452412123	-0.243169824
2.995528017	-0.300160096	0.415014411
3.073967184	-0.195880512	0.281079218
3.064668273	-0.085823075	0.1385769
3.367909779	-0.46602372	0.002314306
3.24486683	-0.330522439	-0.147711676
3.596124225	-0.237032099	-0.32994927
3.303600561	-0.097579688	0.515487399
3.040470034	-0.426762302	0.339612345
3.019543604	-0.313311204	0.194823752
3.017624465	-0.203915448	0.054641107
3.39196602	-0.107833879	-0.094675501
3.330533147	-0.474472087	-0.244038025
3.001042542	-0.318316988	0.529635305
3.113962465	-0.216474597	0.399981279
3.363864101	-0.113098835	0.275237791
3.444935808	-0.496954099	0.129391741
3.436025763	-0.369732071	-0.031003334
3.294600907	-0.235562093	-0.181602249
3.549126548	-0.520383248	0.529884856
3.003674993	-0.329881047	0.304112918
3.018376052	-0.221308114	0.16549757
3.023780772	-0.11285548	0.026248062
3.228629868	-0.478457711	-0.117399757
3.371629769	-0.376427448	-0.278622619
3.021189435	-0.227069915	0.501891301
3.309249685	-0.129975573	0.392680856
3.442917991	-0.517141432	0.256829069
3.058158636	-0.347417737	0.084896364
3.361432795	-0.259546313	-0.0615563
3.312272932	-0.136926988	-0.213971314
3.015173027	-0.348920752	0.418428476
3.035854243	-0.240259802	0.277898565
3.054009005	-0.132433051	0.138170516
3.347516667	-0.51565076	0.002305458
3.263227091	-0.383052379	-0.148797449
3.597028221	-0.292569548	-0.330405127
3.290857239	-0.147755312	0.513792241
3.406746809	-0.531580706	0.381390463
3.013391556	-0.359473546	0.194759707
3.017130792	-0.250427527	0.054695295
3.383921892	-0.159568753	-0.094508183
3.314982203	-0.524257629	-0.243459234
3.002650936	-0.36514547	0.53084528
3.000570847	-0.254895541	0.385873276
3.296031855	-0.161465945	0.269858532
3.371781158	-0.539321125	0.126939875
3.352538023	-0.412861271	-0.030303605
3.246831346	-0.282265883	-0.179186741
3.027776315	-0.152286175	0.58747222
3.605174572	-0.585224607	0.53952978
2.999248624	-0.376040008	0.304213053
3.011642479	-0.267316731	0.165333761
3.047656936	-0.160592682	0.026473589
3.207104235	-0.525663023	-0.116896515
3.634379326	-0.462309155	-0.300886236
2.991805152	-0.271071279	0.497642146
3.425854148	-0.187224268	0.406810286
3.455241036	-0.57332037	0.258374022
3.432169542	-0.443332328	0.095456712
3.366016298	-0.311907765	-0.061720593
3.284874723	-0.186305822	-0.21236105
3.006985616	-0.283338714	0.38701715
3.09341848	-0.180093806	0.253394805
3.444511041	-0.583517271	0.129874688
3.368421985	-0.446326722	-0.030483022
3.272919169	-0.314910247	-0.180778782
3.028857455	-0.407132506	0.421296293
3.027944151	-0.295808762	0.277625934
3.028121175	-0.187207162	0.137131979
3.355194797	-0.580247641	0.00231771
3.289278487	-0.447632884	-0.150335651
3.576169863	-0.357244707	-0.329037557
3.040074852	-0.192622038	0.47511142
3.480584862	-0.608928494	0.390845519
3.359186363	-0.463584317	0.217623646
3.040857008	-0.308850509	0.055219127
3.407342867	-0.223595954	-0.095261124
3.336197932	-0.59075173	-0.245774457
3.035525948	-0.201685935	0.474494988
3.493378289	-0.622218295	0.392494659
3.422966494	-0.483092384	0.221850584
3.062766472	-0.320572162	0.055634579
3.397665527	-0.233431842	-0.095010144
3.352037885	-0.604168763	-0.247076759
2.993181267	-0.317555799	0.498622701
3.072891739	-0.21525647	0.365246179
3.442115437	-0.625540346	0.258079753
3.477398549	-0.503519112	0.096918069
3.316104082	-0.358664986	-0.060899114
3.314476555	-0.239040141	-0.214486596
3.011159393	-0.330403829	0.388161053
3.014749332	-0.221961359	0.247200541
3.459719931	-0.640834742	0.130803418
3.321613022	-0.492081516	-0.030124187
3.264726739	-0.364744578	-0.180614094
3.018016489	-0.34053008	0.389177847
3.006104321	-0.230599582	0.246548497
3.457737532	-0.651446022	0.130803418
3.359635965	-0.508252768	-0.030483022
3.27251991	-0.375784093	-0.181108171
3.004148771	-0.348302582	0.387525547
3.039162031	-0.242516612	0.249319635
3.456704232	-0.662239181	0.130840567
3.302719163	-0.510011594	-0.029980656
3.258460557	-0.384301899	-0.180394495
3.039338539	-0.250421518	0.36159608
3.009465508	-0.251027553	0.136499827
3.254872506	-0.392508576	-0.059858573
3.314276847	-0.279947865	-0.214679834
2.985999402	-0.363193227	0.498295887
3.028679676	-0.260391624	0.248586082
3.04050312	-0.263332764	0.026473589
3.311044165	-0.658123286	-0.121425708
3.538985409	-0.572109058	-0.294419967
3.555971406	-0.712471538	0.535730282
3.448852477	-0.562034703	0.351677512
3.041370978	-0.383228635	0.167627035
3.042668793	-0.272927671	0.026499612
3.343294559	-0.675202493	-0.122683828
3.57753195	-0.589608661	-0.297775886
3.544075033	-0.721404503	0.534268954
3.42944468	-0.569678164	0.349875068
3.043151698	-0.392941253	0.167790829
3.069696254	-0.28484818	0.02674249
3.351976036	-0.687665602	-0.123079231
4.077956511	-0.68494036	-0.339602016
3.542813974	-0.732474511	0.534415047
3.431604899	-0.580861058	0.350275612
3.333949347	-0.440893056	0.183898314
3.149435177	-0.301995761	0.027445098
3.337131988	-0.695296132	-0.12261193
4.122007099	-0.705348835	-0.343449048
3.510537218	-0.737039017	0.529884856
3.446475167	-0.594260463	0.35197792
3.360286638	-0.454869799	0.185427158
3.347513614	-0.331356853	0.029179934
3.399512385	-0.719182505	-0.124984374
4.136515197	-0.720900603	-0.344840519
3.01665682	-0.300668682	0.587472219
3.481506534	-0.610177887	0.487256134
3.025579492	-0.417941775	0.278716432
3.029180518	-0.308913183	0.137628665
3.411525216	-0.731171088	0.002374887
3.195037225	-0.565374908	-0.146942568
4.00285733	-0.561841369	-0.370064686
3.035251998	-0.311929505	0.591277081
3.49034566	-0.622770227	0.488758349
3.015408305	-0.4259685	0.277898565
3.019276984	-0.31726553	0.13722228
3.361385644	-0.731218423	0.002341534
3.189354971	-0.574466175	-0.146761608
4.295850898	-0.616410952	-0.39732493
2.992648149	-0.319103711	0.46940946
3.494914854	-0.767409782	0.395792942
3.465781439	-0.630989462	0.226077537
3.460155052	-0.502340295	0.063166926
3.25746413	-0.354760109	-0.09141275
3.820910001	-0.847243694	-0.283903131
3.467992194	-0.510326703	0.4491687
2.978780894	-0.329922822	0.245081419
3.49717825	-0.781916258	0.133218136
3.341557009	-0.62150425	-0.030491993
3.255014602	-0.485546843	-0.180943469
3.496888778	-0.79036497	0.529592614
3.478999549	-0.65497234	0.35628376
3.385495319	-0.5112809	0.187229021
3.354952095	-0.38414487	0.029292697
3.445571874	-0.784330688	-0.127105182
3.866486611	-0.73512198	-0.323231719
3.584584375	-0.821753173	0.406787197
3.507853072	-0.672062094	0.229215721
3.449456534	-0.533248902	0.063058542
3.271929738	-0.386838591	-0.091914711
3.823638987	-0.884848056	-0.284698973
3.546915418	-0.690833916	0.23190559
3.255842558	-0.395068742	-0.091496413
3.814109375	-0.894979737	-0.284192541
3.036827001	-0.374129784	0.25021615
3.363183058	-0.416481454	0.029396787
3.316382372	-0.660590938	-0.153140586
3.527874151	-0.572674486	-0.327214132
3.563369104	-0.716242351	0.365796691
3.632726148	-0.872347804	0.002543014
3.343713863	-0.676707025	-0.154497814
3.524135723	-0.583170007	-0.327031773
3.034474326	-0.392756366	0.25021615
3.23666358	-0.543889525	-0.180449391
3.172557919	-0.541648822	-0.058763263
3.312373192	-0.444357439	-0.215710398
3.405715137	-0.717227271	0.350275611
3.460481034	-0.471346812	0.157857557
3.660439443	-0.914715805	0.002568199
3.42432021	-0.725890371	-0.158524257
3.909031905	-0.683883096	-0.363318007
3.10576028	-0.427878374	0.488981034
3.370053219	-0.723597733	-0.030922595
3.262980551	-0.579240701	-0.182206133
3.050068182	-0.431373731	0.365246179
3.392250213	-0.483271933	0.154877414
3.662507339	-0.939145705	0.002573645
3.27789191	-0.592266796	-0.183139393
3.393139564	-0.747258349	0.349674796
3.397029994	-0.62161983	0.06239021
3.253079092	-0.476009931	-0.091719506
3.786660125	-0.841062069	-0.318566166
3.351672711	-0.498492762	0.153161561
3.333084619	-0.623382262	-0.186433265
3.501587539	-0.528149119	0.419880035
3.483102156	-0.657971749	0.193835809
3.452572519	-0.785757858	-0.031765859
3.303632998	-0.505252116	-0.215710399
3.551985645	-0.544997452	0.560486581
3.431632979	-0.792073544	-0.031595413
3.282347493	-0.512307314	-0.214422193
3.567763425	-0.695371107	0.331697093
3.245018217	-0.515580699	-0.091663731
3.350510371	-0.540785347	0.029440159
3.356516567	-0.670496373	-0.188189993
3.454176499	-0.693941722	0.451456475
3.485532463	-0.702836328	0.19443643
3.60892156	-0.868055653	-0.033299878
3.28733864	-0.544125108	-0.215066295
3.482299238	-0.580003893	0.418584827
3.439468019	-0.576448981	0.15763179
3.317983247	-0.682426994	-0.061848378
3.769662009	-0.922657059	-0.31872987
3.474131484	-0.721483814	0.323790894
3.364112045	-0.701330973	0.062083134
3.915705363	-0.969186473	-0.182682913
3.522851947	-0.607097363	0.557558563
3.4554693	-0.729933608	0.193125992
3.63861064	-0.91070326	-0.033649742
3.290055386	-0.575734032	-0.215581578
3.496373524	-0.615472771	0.420939746
3.705494315	-0.938707337	0.105438032
3.226120846	-0.573648526	-0.09141275
3.761857041	-0.81393291	-0.352377426
3.457755076	-0.752608779	0.193508206
3.632954336	-0.933012248	-0.033649742
3.306098973	-0.599471485	-0.216869783
3.460153613	-0.762990183	0.323336527
3.336158024	-0.612248792	0.02942281
3.313076428	-0.611241136	-0.217449468
3.46848677	-0.775993896	0.324336157
3.337212861	-0.623031601	0.029448833
3.796363247	-1.003605059	-0.322495036
3.47015515	-0.788827857	0.194600238
3.204109023	-0.610388805	-0.090994452
3.506026339	-0.672774747	0.423294637
3.533371075	-0.81616523	0.06551514
3.397438589	-0.659195279	-0.223375228
3.287593378	-0.647221977	-0.093476375
3.517221984	-0.699112435	0.293250077
3.560061367	-0.846817211	-0.066813772
3.526867905	-0.846064887	0.330970095
3.344904193	-0.677722796	0.029604968
3.758170364	-0.910227833	-0.35401852
3.515018307	-0.719332199	0.425414059
3.646450974	-0.889557892	0.067809159
3.450660037	-0.713568903	-0.227433082
3.516808959	-0.729026297	0.560178365
3.374941159	-0.705394313	0.029908564
3.74961552	-0.932549359	-0.353744995
3.498878586	-0.738425637	0.42400113
3.722022541	-0.933746458	-0.070063186
3.475876274	-0.746493945	0.290723466
3.369898468	-0.728103412	-0.096181383
3.517322211	-0.768620644	0.162734156
3.525467329	-0.774269595	-0.23297238
3.468035016	-0.76341906	0.553860033
3.424888406	-0.762009914	-0.097882477
3.496399874	-0.78694188	0.031088253
3.508592291	-0.801003423	0.031218367
3.462520657	-0.803898613	-0.099165266
3.530447762	-0.826476674	0.296510213
3.460014234	-0.82119321	0.290804975
3.832934666	-0.928503914	-0.254549858
3.718411862	-0.911540569	-0.106806238
3.657288547	-0.906088764	0.032684302
3.738202672	-0.937900904	0.174203222
3.10869815	0.174281846	0.390374423
3.087123763	0.276737497	0.269099089
3.018117761	0.887612836	0.275289006
3.566183973	0.669217076	0.186495862
3.309264208	0.299171833	0.052267452
3.546273758	0.313795483	-0.073810327
4.057492784	0.353666491	-0.229876066
4.186553669	0.232650828	-0.390270137
7.488749298	-1.948130521	-0.278330167
7.102394092	-1.937787312	0.005011154
7.135316564	-1.973527088	-0.266288241
7.032618973	-2.009005707	0.271897268
6.659742723	-1.927250091	0.004719143
6.553744094	-1.921366075	-0.245655229
7.527659337	-1.961531716	-0.352291194
7.476728818	-1.969147285	-0.069362786
6.712529437	-2.051934129	0.26093815
7.497144113	-2.002785085	-0.351431634
6.326039579	-1.957571102	0.004507452
7.166979326	-1.958281584	-0.066653576
6.76228915	-2.133058113	0.523074971
7.082716512	-1.962089721	-0.332837608
7.105643134	-1.986851618	0.203514159
6.051268267	-1.954229542	0.004328433
6.876130252	-1.969803331	-0.064168651
6.543293886	-2.152614688	0.508140491
6.795140029	-1.969179948	-0.063468922
7.32091974	-2.140088847	0.489493097
5.926851387	-1.977228717	-0.224734625
7.270297588	-2.149523776	0.486547018
5.8506779	-1.971784697	-0.222074618
7.207257562	-2.15495177	0.482768411
6.534394327	-1.958986591	-0.061199289
5.800523999	-1.991881956	0.0041746
5.9525908	-2.062094655	0.234190506
7.171107699	-1.916408489	-0.135526088
7.471945208	-2.01830678	0.139827045
6.301725431	-1.955757934	-0.298816409
6.351622918	-1.98800145	0.183579088
6.295695436	-1.975082306	-0.298816409
6.3388225	-2.005367982	0.183386073
6.25818218	-1.984423566	-0.297323462
6.166016906	-1.971529541	0.178560854
5.40280988	-1.951015053	-0.206617822
7.492367493	-2.119420142	0.425783573
6.207287028	-2.007172396	-0.058525968
6.962425546	-1.995757183	0.130849646
5.916846841	-1.936299266	-0.28194153
5.287689411	-1.962122204	0.003839026
6.724584638	-1.972311806	0.126604797
5.963599931	-1.992192337	-0.284746465
5.844212494	-1.96794465	0.170096025
5.156347828	-1.951931793	-0.198314285
5.186202003	-1.976778887	0.206328374
5.747894369	-1.956508604	-0.054471135
5.086839486	-1.958941028	0.003710378
5.722097663	-1.970241354	-0.274069605
5.065911973	-1.966613072	0.202019033
6.385566522	-1.960976615	-0.121962523
6.376482228	-1.976930886	0.120607825
7.483422145	-2.030431079	-0.216317487
6.349397476	-1.989906001	0.120210433
7.485833056	-2.055762734	-0.216568468
6.016606816	-2.145590297	0.642872905
5.031817857	-2.006861787	0.201387492
7.512236436	-2.087820072	-0.217516614
7.022552525	-1.970326435	0.063269449
4.962172009	-2.001281387	-0.192455088
6.853110629	-2.211430709	0.657123761
4.925779914	-2.001791866	0.003619167
5.497180968	-2.006720413	-0.26502144
5.007162654	-1.838523123	0.34231853
6.798886859	-1.95265187	0.061361132
4.844405143	-1.988431472	-0.188357239
6.707939899	-2.210121553	0.644491987
6.664189337	-1.93611818	0.060198793
4.819815409	-1.99563831	-0.187638318
5.00700314	-1.87340834	0.343087072
4.788090977	-1.997377689	0.003531359
5.370929413	-2.016843976	-0.259818729
5.019903916	-1.895812403	0.344367947
4.773644686	-2.008567558	0.003525233
5.850368853	-1.977907859	-0.339543516
5.002873989	-1.90693905	0.343599434
6.61257005	-1.987298559	0.059895197
4.67891345	-1.987939441	-0.182857489
7.380479096	-2.237727264	0.63067516
5.147082634	-1.983107822	0.152146206
6.444156799	-1.962561471	-0.187928778
5.273467143	-2.269242013	0.635027806
6.83271905	-2.098474559	0.323075165
5.721688662	-1.990358137	-0.11060783
6.637346688	-2.060776204	0.314134737
5.602357506	-1.968135675	-0.108417218
4.973527616	-1.965987313	0.343215162
4.489547255	-1.970624543	0.003337366
5.011603663	-1.987918836	-0.244165358
4.942477864	-2.183519301	0.398596391
5.466699002	-1.955875008	0.104892859
6.174769012	-1.963638644	-0.180761886
5.074783137	-1.830834105	0.295012652
4.941160566	-1.992544324	-0.047796804
5.440409944	-1.970471591	-0.31813332
6.837330721	-2.211264318	0.587641203
4.445685803	-2.000372622	0.003318307
