x	y	z
7.324703806 7.324703806 7.324703806
7.144656469 7.144656469 7.144656469
6.266033454 6.266033454 6.266033454
7.326225546 7.326225546 7.326225546
5.758897094 5.758897094 5.758897094
7.254732435 7.254732435 7.254732435
6.523879605 6.523879605 6.523879605
7.252468666 7.252468666 7.252468666
7.33835804 7.33835804 7.33835804
6.867629707 6.867629707 6.867629707
7.295928035 7.295928035 7.295928035
7.633211023 7.633211023 7.633211023
7.210843058 7.210843058 7.210843058
7.032537316 7.032537316 7.032537316
6.729185503 6.729185503 6.729185503
7.161431838 7.161431838 7.161431838
7.305319806 7.305319806 7.305319806
6.928843869 6.928843869 6.928843869
6.932306381 6.932306381 6.932306381
7.406574088 7.406574088 7.406574088
6.990008557 6.990008557 6.990008557
7.341371885 7.341371885 7.341371885
7.115551661 7.115551661 7.115551661
6.867905082 6.867905082 6.867905082
7.119119976 7.119119976 7.119119976
7.124093693 7.124093693 7.124093693
7.596996131 7.596996131 7.596996131
7.176480901 7.176480901 7.176480901
7.671286519 7.671286519 7.671286519
7.143702592 7.143702592 7.143702592
7.858502357 7.858502357 7.858502357
7.157855633 7.157855633 7.157855633
7.262295906 7.262295906 7.262295906
7.888754673 7.888754673 7.888754673
6.981041578 6.981041578 6.981041578
7.041359345 7.041359345 7.041359345
3.973222503 3.973222503 3.973222503
3.341621673 3.341621673 3.341621673
3.316697086 3.316697086 3.316697086
12.17837777 12.17837777 12.17837777
11.84616141 11.84616141 11.84616141
12.22038167 12.22038167 12.22038167
12.2475831 12.2475831 12.2475831
12.27719278 12.27719278 12.27719278
11.75349733 11.75349733 11.75349733
11.80313841 11.80313841 11.80313841
12.25545583 12.25545583 12.25545583
9.717867019 9.717867019 9.717867019
9.792828806 9.792828806 9.792828806
11.72681724 11.72681724 11.72681724
11.76114084 11.76114084 11.76114084
10.44381865 10.44381865 10.44381865
11.78560147 11.78560147 11.78560147
11.79435112 11.79435112 11.79435112
12.30312848 12.30312848 12.30312848
10.74081 10.74081 10.74081
10.91928611 10.91928611 10.91928611
11.3611985 11.3611985 11.3611985
11.444249 11.444249 11.444249
11.25660469 11.25660469 11.25660469
11.47576345 11.47576345 11.47576345
11.28504917 11.28504917 11.28504917
11.31256063 11.31256063 11.31256063
12.27011109 12.27011109 12.27011109
11.23598277 11.23598277 11.23598277
9.810623102 9.810623102 9.810623102
11.32931262 11.32931262 11.32931262
12.02364841 12.02364841 12.02364841
11.7100911 11.7100911 11.7100911
11.72647286 11.72647286 11.72647286
11.20010145 11.20010145 11.20010145
11.16271975 11.16271975 11.16271975
11.42054541 11.42054541 11.42054541
11.13324911 11.13324911 11.13324911
11.15664851 11.15664851 11.15664851
11.18137709 11.18137709 11.18137709
11.32851889 11.32851889 11.32851889
11.82786816 11.82786816 11.82786816
11.68200238 11.68200238 11.68200238
11.19102961 11.19102961 11.19102961
11.72976463 11.72976463 11.72976463
11.19754226 11.19754226 11.19754226
11.23152737 11.23152737 11.23152737
11.33682109 11.33682109 11.33682109
11.18234343 11.18234343 11.18234343
11.13907449 11.13907449 11.13907449
11.22470496 11.22470496 11.22470496
11.99045341 11.99045341 11.99045341
11.20796415 11.20796415 11.20796415
11.69068143 11.69068143 11.69068143
11.69356954 11.69356954 11.69356954
12.04745392 12.04745392 12.04745392
11.37299474 11.37299474 11.37299474
11.1806172 11.1806172 11.1806172
11.99207977 11.99207977 11.99207977
11.61401455 11.61401455 11.61401455
12.04211297 12.04211297 12.04211297
11.77051171 11.77051171 11.77051171
11.1942019 11.1942019 11.1942019
11.90442414 11.90442414 11.90442414
11.23624914 11.23624914 11.23624914
11.24702176 11.24702176 11.24702176
11.17416874 11.17416874 11.17416874
11.09508062 11.09508062 11.09508062
11.07163578 11.07163578 11.07163578
11.05374363 11.05374363 11.05374363
11.87538971 11.87538971 11.87538971
11.18661666 11.18661666 11.18661666
11.84060417 11.84060417 11.84060417
11.94346949 11.94346949 11.94346949
12.06204576 12.06204576 12.06204576
12.01528766 12.01528766 12.01528766
12.06644461 12.06644461 12.06644461
11.78547841 11.78547841 11.78547841
11.0976515 11.0976515 11.0976515
11.14249122 11.14249122 11.14249122
11.16537011 11.16537011 11.16537011
11.67016848 11.67016848 11.67016848
11.74204474 11.74204474 11.74204474
11.9553926 11.9553926 11.9553926
11.67647529 11.67647529 11.67647529
11.10679965 11.10679965 11.10679965
11.69351739 11.69351739 11.69351739
11.29561457 11.29561457 11.29561457
6.250116145 6.250116145 6.250116145
6.245999203 6.245999203 6.245999203
6.369745583 6.369745583 6.369745583
6.505065549 6.505065549 6.505065549
6.432294614 6.432294614 6.432294614
6.461307124 6.461307124 6.461307124
6.30364564 6.30364564 6.30364564
6.521696278 6.521696278 6.521696278
6.347236748 6.347236748 6.347236748
6.207964139 6.207964139 6.207964139
6.51792373 6.51792373 6.51792373
6.790658492 6.790658492 6.790658492
6.212518886 6.212518886 6.212518886
6.245231704 6.245231704 6.245231704
6.458799337 6.458799337 6.458799337
7.118767938 7.118767938 7.118767938
7.130504343 7.130504343 7.130504343
6.515894974 6.515894974 6.515894974
7.305725281 7.305725281 7.305725281
6.349413557 6.349413557 6.349413557
6.542758536 6.542758536 6.542758536
7.359814367 7.359814367 7.359814367
7.227776419 7.227776419 7.227776419
6.235373752 6.235373752 6.235373752
7.235761469 7.235761469 7.235761469
7.140637133 7.140637133 7.140637133
6.493274332 6.493274332 6.493274332
7.179384232 7.179384232 7.179384232
6.331535059 6.331535059 6.331535059
7.288263339 7.288263339 7.288263339
7.280934602 7.280934602 7.280934602
6.825996718 6.825996718 6.825996718
6.506054048 6.506054048 6.506054048
6.410542942 6.410542942 6.410542942
6.879282011 6.879282011 6.879282011
7.219531702 7.219531702 7.219531702
6.493844441 6.493844441 6.493844441
7.300821281 7.300821281 7.300821281
6.808898746 6.808898746 6.808898746
7.333238204 7.333238204 7.333238204
7.131317703 7.131317703 7.131317703
7.166184625 7.166184625 7.166184625
7.253130263 7.253130263 7.253130263
7.222795612 7.222795612 7.222795612
6.149251066 6.149251066 6.149251066
15.49265996 15.49265996 15.49265996
15.38564462 15.38564462 15.38564462
15.50698014 15.50698014 15.50698014
13.95883143 13.95883143 13.95883143
14.02639953 14.02639953 14.02639953
14.15982089 14.15982089 14.15982089
15.1055069 15.1055069 15.1055069
14.77524607 14.77524607 14.77524607
14.19320717 14.19320717 14.19320717
14.01624307 14.01624307 14.01624307
15.09212423 15.09212423 15.09212423
15.00097551 15.00097551 15.00097551
14.99101628 14.99101628 14.99101628
14.96776144 14.96776144 14.96776144
14.98001788 14.98001788 14.98001788
14.24503899 14.24503899 14.24503899
14.52797797 14.52797797 14.52797797
14.42357979 14.42357979 14.42357979
14.01087286 14.01087286 14.01087286
14.83905483 14.83905483 14.83905483
14.85569143 14.85569143 14.85569143
14.241479 14.241479 14.241479
14.60440319 14.60440319 14.60440319
14.82792884 14.82792884 14.82792884
15.04491985 15.04491985 15.04491985
14.94410123 14.94410123 14.94410123
3.83981542 3.83981542 3.83981542
3.575365928 3.575365928 3.575365928
3.797077501 3.797077501 3.797077501
3.81423971 3.81423971 3.81423971
3.805419232 3.805419232 3.805419232
3.861042838 3.861042838 3.861042838
3.8374406 3.8374406 3.8374406
3.945764398 3.945764398 3.945764398
3.494401768 3.494401768 3.494401768
3.548153022 3.548153022 3.548153022
3.823149658 3.823149658 3.823149658
3.820791827 3.820791827 3.820791827
3.842852796 3.842852796 3.842852796
3.596499173 3.596499173 3.596499173
3.515722556 3.515722556 3.515722556
3.843894226 3.843894226 3.843894226
3.799594709 3.799594709 3.799594709
3.359885175 3.359885175 3.359885175
3.808679731 3.808679731 3.808679731
3.35738222 3.35738222 3.35738222
3.80796808 3.80796808 3.80796808
3.360692095 3.360692095 3.360692095
3.810149588 3.810149588 3.810149588
3.678681706 3.678681706 3.678681706
3.848082731 3.848082731 3.848082731
3.802318707 3.802318707 3.802318707
3.500481631 3.500481631 3.500481631
3.780938876 3.780938876 3.780938876
3.573172317 3.573172317 3.573172317
3.78829072 3.78829072 3.78829072
3.65036382 3.65036382 3.65036382
3.850669659 3.850669659 3.850669659
3.304148798 3.304148798 3.304148798
3.629589184 3.629589184 3.629589184
3.619525264 3.619525264 3.619525264
3.954857213 3.954857213 3.954857213
3.611917092 3.611917092 3.611917092
4.142833764 4.142833764 4.142833764
3.25158605 3.25158605 3.25158605
3.606396895 3.606396895 3.606396895
4.186904184 4.186904184 4.186904184
3.248746721 3.248746721 3.248746721
3.635839057 3.635839057 3.635839057
3.83450969 3.83450969 3.83450969
4.254378872 4.254378872 4.254378872
3.928343275 3.928343275 3.928343275
3.783572565 3.783572565 3.783572565
3.412585912 3.412585912 3.412585912
4.208823345 4.208823345 4.208823345
3.810507924 3.810507924 3.810507924
3.405560543 3.405560543 3.405560543
4.185954445 4.185954445 4.185954445
3.815872078 3.815872078 3.815872078
3.397508027 3.397508027 3.397508027
3.851841821 3.851841821 3.851841821
3.830865653 3.830865653 3.830865653
3.371567405 3.371567405 3.371567405
4.007621064 4.007621064 4.007621064
3.838104837 3.838104837 3.838104837
3.349089025 3.349089025 3.349089025
4.060770781 4.060770781 4.060770781
3.824031718 3.824031718 3.824031718
3.605998758 3.605998758 3.605998758
4.102440972 4.102440972 4.102440972
3.551153862 3.551153862 3.551153862
3.819136345 3.819136345 3.819136345
3.836396178 3.836396178 3.836396178
3.602404224 3.602404224 3.602404224
4.060347402 4.060347402 4.060347402
3.612991233 3.612991233 3.612991233
3.833243618 3.833243618 3.833243618
3.06639065 3.06639065 3.06639065
3.310499353 3.310499353 3.310499353
4.086877044 4.086877044 4.086877044
3.05751728 3.05751728 3.05751728
3.391148322 3.391148322 3.391148322
4.176446548 4.176446548 4.176446548
3.513636011 3.513636011 3.513636011
4.093509083 4.093509083 4.093509083
3.50129892 3.50129892 3.50129892
4.098747419 4.098747419 4.098747419
3.861067656 3.861067656 3.861067656
3.499672018 3.499672018 3.499672018
4.100981171 4.100981171 4.100981171
3.289883096 3.289883096 3.289883096
3.859279867 3.859279867 3.859279867
3.058300018 3.058300018 3.058300018
3.842841033 3.842841033 3.842841033
4.031340199 4.031340199 4.031340199
3.514168252 3.514168252 3.514168252
4.032906878 4.032906878 4.032906878
3.400685856 3.400685856 3.400685856
3.811764672 3.811764672 3.811764672
4.135040257 4.135040257 4.135040257
3.047884839 3.047884839 3.047884839
3.842049504 3.842049504 3.842049504
4.050718118 4.050718118 4.050718118
3.04992973 3.04992973 3.04992973
3.870786483 3.870786483 3.870786483
4.122504954 4.122504954 4.122504954
3.079350581 3.079350581 3.079350581
3.834787049 3.834787049 3.834787049
4.113789157 4.113789157 4.113789157
3.056368425 3.056368425 3.056368425
4.150726948 4.150726948 4.150726948
3.086424663 3.086424663 3.086424663
4.005553116 4.005553116 4.005553116
4.20396471 4.20396471 4.20396471
3.049735966 3.049735966 3.049735966
3.328723152 3.328723152 3.328723152
4.122819619 4.122819619 4.122819619
3.076974784 3.076974784 3.076974784
3.089463856 3.089463856 3.089463856
3.32143132 3.32143132 3.32143132
4.121143503 4.121143503 4.121143503
3.047968584 3.047968584 3.047968584
4.131419591 4.131419591 4.131419591
3.849610027 3.849610027 3.849610027
3.502593241 3.502593241 3.502593241
3.033574275 3.033574275 3.033574275
3.5307653 3.5307653 3.5307653
3.322180398 3.322180398 3.322180398
3.88893241 3.88893241 3.88893241
3.075719885 3.075719885 3.075719885
3.07862483 3.07862483 3.07862483
3.281173944 3.281173944 3.281173944
3.347282047 3.347282047 3.347282047
4.196739692 4.196739692 4.196739692
3.052321894 3.052321894 3.052321894
3.351746971 3.351746971 3.351746971
3.310053582 3.310053582 3.310053582
3.343715906 3.343715906 3.343715906
4.188222565 4.188222565 4.188222565
3.053930072 3.053930072 3.053930072
3.462361429 3.462361429 3.462361429
3.363873995 3.363873995 3.363873995
3.400673315 3.400673315 3.400673315
3.584846982 3.584846982 3.584846982
4.084999397 4.084999397 4.084999397
3.06777442 3.06777442 3.06777442
3.473664557 3.473664557 3.473664557
3.051685791 3.051685791 3.051685791
3.293354927 3.293354927 3.293354927
4.020785008 4.020785008 4.020785008
4.12256371 4.12256371 4.12256371
3.512326703 3.512326703 3.512326703
3.065926504 3.065926504 3.065926504
3.444820998 3.444820998 3.444820998
3.311648385 3.311648385 3.311648385
4.248647645 4.248647645 4.248647645
3.51594845 3.51594845 3.51594845
3.05733875 3.05733875 3.05733875
3.440666506 3.440666506 3.440666506
3.314798685 3.314798685 3.314798685
4.243731661 4.243731661 4.243731661
3.523482606 3.523482606 3.523482606
3.05471144 3.05471144 3.05471144
3.461408136 3.461408136 3.461408136
3.316926617 3.316926617 3.316926617
4.248613209 4.248613209 4.248613209
3.489563839 3.489563839 3.489563839
3.041069171 3.041069171 3.041069171
3.4522027 3.4522027 3.4522027
3.3120741 3.3120741 3.3120741
4.248533703 4.248533703 4.248533703
3.126905421 3.126905421 3.126905421
3.040819507 3.040819507 3.040819507
3.284623322 3.284623322 3.284623322
3.362852769 3.362852769 3.362852769
4.160481857 4.160481857 4.160481857
3.056162612 3.056162612 3.056162612
3.435744673 3.435744673 3.435744673
3.234158787 3.234158787 3.234158787
3.3589253 3.3589253 3.3589253
4.139137816 4.139137816 4.139137816
3.05775791 3.05775791 3.05775791
3.469635123 3.469635123 3.469635123
3.247399007 3.247399007 3.247399007
3.351213302 3.351213302 3.351213302
4.16407774 4.16407774 4.16407774
3.151620907 3.151620907 3.151620907
3.03560837 3.03560837 3.03560837
3.29161942 3.29161942 3.29161942
3.353210106 3.353210106 3.353210106
4.207990011 4.207990011 4.207990011
3.184601099 3.184601099 3.184601099
3.034336374 3.034336374 3.034336374
3.095117866 3.095117866 3.095117866
3.318113381 3.318113381 3.318113381
4.118228451 4.118228451 4.118228451
3.037053835 3.037053835 3.037053835
3.449151848 3.449151848 3.449151848
3.027616516 3.027616516 3.027616516
3.265248172 3.265248172 3.265248172
3.615907414 3.615907414 3.615907414
4.103931886 4.103931886 4.103931886
3.06385419 3.06385419 3.06385419
3.085070564 3.085070564 3.085070564
3.304118003 3.304118003 3.304118003
3.345971004 3.345971004 3.345971004
4.199567513 4.199567513 4.199567513
3.067545433 3.067545433 3.067545433
3.068722712 3.068722712 3.068722712
3.077587886 3.077587886 3.077587886
3.313800578 3.313800578 3.313800578
4.07152087 4.07152087 4.07152087
4.150420247 4.150420247 4.150420247
3.02869192 3.02869192 3.02869192
3.399831251 3.399831251 3.399831251
3.419721217 3.419721217 3.419721217
3.51302959 3.51302959 3.51302959
4.213312065 4.213312065 4.213312065
3.038213633 3.038213633 3.038213633
3.078413842 3.078413842 3.078413842
3.295775312 3.295775312 3.295775312
3.319266196 3.319266196 3.319266196
4.212152639 4.212152639 4.212152639
3.384800144 3.384800144 3.384800144
3.035741561 3.035741561 3.035741561
3.422221419 3.422221419 3.422221419
3.317246864 3.317246864 3.317246864
4.086594439 4.086594439 4.086594439
3.057972526 3.057972526 3.057972526
3.043890507 3.043890507 3.043890507
3.04912088 3.04912088 3.04912088
3.299960752 3.299960752 3.299960752
4.091971348 4.091971348 4.091971348
3.078984469 3.078984469 3.078984469
3.07317427 3.07317427 3.07317427
3.04995187 3.04995187 3.04995187
3.398942282 3.398942282 3.398942282
3.609967482 3.609967482 3.609967482
4.085119386 4.085119386 4.085119386
3.02509504 3.02509504 3.02509504
3.375666029 3.375666029 3.375666029
3.399661736 3.399661736 3.399661736
3.415263861 3.415263861 3.415263861
4.19510561 4.19510561 4.19510561
3.092632901 3.092632901 3.092632901
3.044757299 3.044757299 3.044757299
3.285176025 3.285176025 3.285176025
3.346936813 3.346936813 3.346936813
4.203230045 4.203230045 4.203230045
3.043933773 3.043933773 3.043933773
3.044580458 3.044580458 3.044580458
3.042163687 3.042163687 3.042163687
3.294566517 3.294566517 3.294566517
4.10590054 4.10590054 4.10590054
3.138547479 3.138547479 3.138547479
3.029766316 3.029766316 3.029766316
3.345803413 3.345803413 3.345803413
3.408226942 3.408226942 3.408226942
3.426925506 3.426925506 3.426925506
4.172593243 4.172593243 4.172593243
3.059558736 3.059558736 3.059558736
3.065235002 3.065235002 3.065235002
3.047510039 3.047510039 3.047510039
3.305639482 3.305639482 3.305639482
4.104216785 4.104216785 4.104216785
3.502489243 3.502489243 3.502489243
3.044827095 3.044827095 3.044827095
3.296822566 3.296822566 3.296822566
3.375080145 3.375080145 3.375080145
4.143542659 4.143542659 4.143542659
3.051472466 3.051472466 3.051472466
3.023892579 3.023892579 3.023892579
3.374406499 3.374406499 3.374406499
3.567509289 3.567509289 3.567509289
4.128005771 4.128005771 4.128005771
3.341468137 3.341468137 3.341468137
3.030782465 3.030782465 3.030782465
3.392354888 3.392354888 3.392354888
3.324832953 3.324832953 3.324832953
4.15706828 4.15706828 4.15706828
3.394988776 3.394988776 3.394988776
3.039082256 3.039082256 3.039082256
3.343119704 3.343119704 3.343119704
3.331300179 3.331300179 3.331300179
4.090162994 4.090162994 4.090162994
3.048325755 3.048325755 3.048325755
3.086608913 3.086608913 3.086608913
3.406503389 3.406503389 3.406503389
3.562006628 3.562006628 3.562006628
4.181949016 4.181949016 4.181949016
3.038392816 3.038392816 3.038392816
3.036649925 3.036649925 3.036649925
3.414481419 3.414481419 3.414481419
3.458716059 3.458716059 3.458716059
4.189070124 4.189070124 4.189070124
3.344990978 3.344990978 3.344990978
3.031796923 3.031796923 3.031796923
3.043093521 3.043093521 3.043093521
3.313845007 3.313845007 3.313845007
4.187907877 4.187907877 4.187907877
3.126103973 3.126103973 3.126103973
3.062217743 3.062217743 3.062217743
3.067603482 3.067603482 3.067603482
3.399218937 3.399218937 3.399218937
3.533926837 3.533926837 3.533926837
4.171080635 4.171080635 4.171080635
3.145837874 3.145837874 3.145837874
3.045626867 3.045626867 3.045626867
3.065592328 3.065592328 3.065592328
3.319112265 3.319112265 3.319112265
4.090784956 4.090784956 4.090784956
3.340289587 3.340289587 3.340289587
3.01385773 3.01385773 3.01385773
3.042944381 3.042944381 3.042944381
3.39610508 3.39610508 3.39610508
3.449872976 3.449872976 3.449872976
4.178620864 4.178620864 4.178620864
3.066183164 3.066183164 3.066183164
3.051344303 3.051344303 3.051344303
3.052993934 3.052993934 3.052993934
3.3132963 3.3132963 3.3132963
4.281600357 4.281600357 4.281600357
3.074024004 3.074024004 3.074024004
3.045815599 3.045815599 3.045815599
3.395052608 3.395052608 3.395052608
3.393733783 3.393733783 3.393733783
4.189953236 4.189953236 4.189953236
3.03723522 3.03723522 3.03723522
3.014973629 3.014973629 3.014973629
3.083267417 3.083267417 3.083267417
3.3053576 3.3053576 3.3053576
4.106670117 4.106670117 4.106670117
3.146132328 3.146132328 3.146132328
3.011832682 3.011832682 3.011832682
3.047730754 3.047730754 3.047730754
3.27493841 3.27493841 3.27493841
4.315900272 4.315900272 4.315900272
3.136890815 3.136890815 3.136890815
3.063092567 3.063092567 3.063092567
3.07409988 3.07409988 3.07409988
3.37791789 3.37791789 3.37791789
3.392772367 3.392772367 3.392772367
3.332344602 3.332344602 3.332344602
2.999496234 2.999496234 2.999496234
3.432080982 3.432080982 3.432080982
3.316897334 3.316897334 3.316897334
4.109147814 4.109147814 4.109147814
3.164446228 3.164446228 3.164446228
2.995511305 2.995511305 2.995511305
3.396510395 3.396510395 3.396510395
3.315163891 3.315163891 3.315163891
4.115096904 4.115096904 4.115096904
3.095276488 3.095276488 3.095276488
3.007495394 3.007495394 3.007495394
3.398864794 3.398864794 3.398864794
3.323344104 3.323344104 3.323344104
4.114064115 4.114064115 4.114064115
3.097882877 3.097882877 3.097882877
3.012452078 3.012452078 3.012452078
3.398190303 3.398190303 3.398190303
3.353360334 3.353360334 3.353360334
4.097124485 4.097124485 4.097124485
3.01471753 3.01471753 3.01471753
3.01271463 3.01271463 3.01271463
3.071347479 3.071347479 3.071347479
3.299002161 3.299002161 3.299002161
4.203623242 4.203623242 4.203623242
3.136571058 3.136571058 3.136571058
3.029926849 3.029926849 3.029926849
3.060214227 3.060214227 3.060214227
3.3456602 3.3456602 3.3456602
4.33061328 4.33061328 4.33061328
3.107757085 3.107757085 3.107757085
3.06119296 3.06119296 3.06119296
3.367793994 3.367793994 3.367793994
3.385867115 3.385867115 3.385867115
3.357486329 3.357486329 3.357486329
3.107713616 3.107713616 3.107713616
3.077904065 3.077904065 3.077904065
3.017401947 3.017401947 3.017401947
3.286936775 3.286936775 3.286936775
3.445976989 3.445976989 3.445976989
4.19242087 4.19242087 4.19242087
3.054671532 3.054671532 3.054671532
3.034806202 3.034806202 3.034806202
3.431317052 3.431317052 3.431317052
3.286285613 3.286285613 3.286285613
4.199871902 4.199871902 4.199871902
3.149244267 3.149244267 3.149244267
3.012607169 3.012607169 3.012607169
3.039182058 3.039182058 3.039182058
3.313927446 3.313927446 3.313927446
4.205196295 4.205196295 4.205196295
3.070284136 3.070284136 3.070284136
3.070277645 3.070277645 3.070277645
3.016772021 3.016772021 3.016772021
3.258159071 3.258159071 3.258159071
3.441070885 3.441070885 3.441070885
4.116310676 4.116310676 4.116310676
2.992856303 2.992856303 2.992856303
3.022032221 3.022032221 3.022032221
3.067010466 3.067010466 3.067010466
3.335023348 3.335023348 3.335023348
4.212212094 4.212212094 4.212212094
3.304467175 3.304467175 3.304467175
3.060863819 3.060863819 3.060863819
3.385591628 3.385591628 3.385591628
3.30828464 3.30828464 3.30828464
3.442467786 3.442467786 3.442467786
4.12760091 4.12760091 4.12760091
3.013799191 3.013799191 3.013799191
3.012468044 3.012468044 3.012468044
3.40467321 3.40467321 3.40467321
3.348476435 3.348476435 3.348476435
4.198503914 4.198503914 4.198503914
3.30495363 3.30495363 3.30495363
3.028597189 3.028597189 3.028597189
3.449738337 3.449738337 3.449738337
3.301273908 3.301273908 3.301273908
4.133746757 4.133746757 4.133746757
3.035194061 3.035194061 3.035194061
3.044694059 3.044694059 3.044694059
3.035819263 3.035819263 3.035819263
3.260646492 3.260646492 3.260646492
3.398478109 3.398478109 3.398478109
4.179371386 4.179371386 4.179371386
3.010532577 3.010532577 3.010532577
3.019557827 3.019557827 3.019557827
3.16106956 3.16106956 3.16106956
3.318905911 3.318905911 3.318905911
4.169356877 4.169356877 4.169356877
3.128334581 3.128334581 3.128334581
3.080607757 3.080607757 3.080607757
3.362751487 3.362751487 3.362751487
3.268465171 3.268465171 3.268465171
3.453135894 3.453135894 3.453135894
4.101425417 4.101425417 4.101425417
3.022006113 3.022006113 3.022006113
3.042364039 3.042364039 3.042364039
3.416209 3.416209 3.416209
3.347313896 3.347313896 3.347313896
4.199107787 4.199107787 4.199107787
3.169887824 3.169887824 3.169887824
3.463056161 3.463056161 3.463056161
3.40345472 3.40345472 3.40345472
3.2748974 3.2748974 3.2748974
4.17671937 4.17671937 4.17671937
3.096983945 3.096983945 3.096983945
3.066135948 3.066135948 3.066135948
3.34988691 3.34988691 3.34988691
3.2677171 3.2677171 3.2677171
3.598505056 3.598505056 3.598505056
4.12645622 4.12645622 4.12645622
3.011476988 3.011476988 3.011476988
3.031792391 3.031792391 3.031792391
3.407553163 3.407553163 3.407553163
3.321522752 3.321522752 3.321522752
4.210252613 4.210252613 4.210252613
3.073967184 3.073967184 3.073967184
3.064668273 3.064668273 3.064668273
3.367909779 3.367909779 3.367909779
3.24486683 3.24486683 3.24486683
3.596124225 3.596124225 3.596124225
4.134692593 4.134692593 4.134692593
3.019543604 3.019543604 3.019543604
3.017624465 3.017624465 3.017624465
3.39196602 3.39196602 3.39196602
3.330533147 3.330533147 3.330533147
4.19574495 4.19574495 4.19574495
3.363864101 3.363864101 3.363864101
3.444935808 3.444935808 3.444935808
3.436025763 3.436025763 3.436025763
3.294600907 3.294600907 3.294600907
4.209733538 4.209733538 4.209733538
4.080095132 4.080095132 4.080095132
3.003674993 3.003674993 3.003674993
3.018376052 3.018376052 3.018376052
3.023780772 3.023780772 3.023780772
3.228629868 3.228629868 3.228629868
3.371629769 3.371629769 3.371629769
4.207282934 4.207282934 4.207282934
3.442917991 3.442917991 3.442917991
3.058158636 3.058158636 3.058158636
3.361432795 3.361432795 3.361432795
3.312272932 3.312272932 3.312272932
4.151880882 4.151880882 4.151880882
3.035854243 3.035854243 3.035854243
3.054009005 3.054009005 3.054009005
3.347516667 3.347516667 3.347516667
3.263227091 3.263227091 3.263227091
3.597028221 3.597028221 3.597028221
4.232265212 4.232265212 4.232265212
3.013391556 3.013391556 3.013391556
3.017130792 3.017130792 3.017130792
3.383921892 3.383921892 3.383921892
3.314982203 3.314982203 3.314982203
4.190399467 4.190399467 4.190399467
3.296031855 3.296031855 3.296031855
3.371781158 3.371781158 3.371781158
3.352538023 3.352538023 3.352538023
3.246831346 3.246831346 3.246831346
4.320214479 4.320214479 4.320214479
4.149531047 4.149531047 4.149531047
2.999248624 2.999248624 2.999248624
3.011642479 3.011642479 3.011642479
3.047656936 3.047656936 3.047656936
3.207104235 3.207104235 3.207104235
3.634379326 3.634379326 3.634379326
4.160432123 4.160432123 4.160432123
3.455241036 3.455241036 3.455241036
3.432169542 3.432169542 3.432169542
3.366016298 3.366016298 3.366016298
3.284874723 3.284874723 3.284874723
4.196571864 4.196571864 4.196571864
3.09341848 3.09341848 3.09341848
3.444511041 3.444511041 3.444511041
3.368421985 3.368421985 3.368421985
3.272919169 3.272919169 3.272919169
4.329924648 4.329924648 4.329924648
3.027944151 3.027944151 3.027944151
3.028121175 3.028121175 3.028121175
3.355194797 3.355194797 3.355194797
3.289278487 3.289278487 3.289278487
3.576169863 3.576169863 3.576169863
4.154587328 4.154587328 4.154587328
3.359186363 3.359186363 3.359186363
3.040857008 3.040857008 3.040857008
3.407342867 3.407342867 3.407342867
3.336197932 3.336197932 3.336197932
4.045591821 4.045591821 4.045591821
3.422966494 3.422966494 3.422966494
3.062766472 3.062766472 3.062766472
3.397665527 3.397665527 3.397665527
3.352037885 3.352037885 3.352037885
4.033018861 4.033018861 4.033018861
3.442115437 3.442115437 3.442115437
3.477398549 3.477398549 3.477398549
3.316104082 3.316104082 3.316104082
3.314476555 3.314476555 3.314476555
4.178401194 4.178401194 4.178401194
3.014749332 3.014749332 3.014749332
3.459719931 3.459719931 3.459719931
3.321613022 3.321613022 3.321613022
3.264726739 3.264726739 3.264726739
4.252007535 4.252007535 4.252007535
4.08594353 4.08594353 4.08594353
3.006104321 3.006104321 3.006104321
3.457737532 3.457737532 3.457737532
3.359635965 3.359635965 3.359635965
3.27251991 3.27251991 3.27251991
4.304560621 4.304560621 4.304560621
4.096735852 4.096735852 4.096735852
3.039162031 3.039162031 3.039162031
3.456704232 3.456704232 3.456704232
3.302719163 3.302719163 3.302719163
3.258460557 3.258460557 3.258460557
4.311434584 4.311434584 4.311434584
4.100644978 4.100644978 4.100644978
3.009465508 3.009465508 3.009465508
3.254872506 3.254872506 3.254872506
3.314276847 3.314276847 3.314276847
3.80191441 3.80191441 3.80191441
3.028679676 3.028679676 3.028679676
3.04050312 3.04050312 3.04050312
3.311044165 3.311044165 3.311044165
3.538985409 3.538985409 3.538985409
4.181715754 4.181715754 4.181715754
3.041370978 3.041370978 3.041370978
3.042668793 3.042668793 3.042668793
3.343294559 3.343294559 3.343294559
3.57753195 3.57753195 3.57753195
4.17222156 4.17222156 4.17222156
3.043151698 3.043151698 3.043151698
3.069696254 3.069696254 3.069696254
3.351976036 3.351976036 3.351976036
4.077956511 4.077956511 4.077956511
4.173511474 4.173511474 4.173511474
3.333949347 3.333949347 3.333949347
3.149435177 3.149435177 3.149435177
3.337131988 3.337131988 3.337131988
4.122007099 4.122007099 4.122007099
4.158049103 4.158049103 4.158049103
3.360286638 3.360286638 3.360286638
3.347513614 3.347513614 3.347513614
3.399512385 3.399512385 3.399512385
4.136515197 4.136515197 4.136515197
4.057074051 4.057074051 4.057074051
3.025579492 3.025579492 3.025579492
3.029180518 3.029180518 3.029180518
3.411525216 3.411525216 3.411525216
3.195037225 3.195037225 3.195037225
4.00285733 4.00285733 4.00285733
3.724839331 3.724839331 3.724839331
3.015408305 3.015408305 3.015408305
3.019276984 3.019276984 3.019276984
3.361385644 3.361385644 3.361385644
3.189354971 3.189354971 3.189354971
4.295850898 4.295850898 4.295850898
4.097264759 4.097264759 4.097264759
3.465781439 3.465781439 3.465781439
3.460155052 3.460155052 3.460155052
3.25746413 3.25746413 3.25746413
3.820910001 3.820910001 3.820910001
4.05850677 4.05850677 4.05850677
2.978780894 2.978780894 2.978780894
3.49717825 3.49717825 3.49717825
3.341557009 3.341557009 3.341557009
3.255014602 3.255014602 3.255014602
4.128551226 4.128551226 4.128551226
3.385495319 3.385495319 3.385495319
3.354952095 3.354952095 3.354952095
3.445571874 3.445571874 3.445571874
3.866486611 3.866486611 3.866486611
4.102939802 4.102939802 4.102939802
3.507853072 3.507853072 3.507853072
3.449456534 3.449456534 3.449456534
3.271929738 3.271929738 3.271929738
3.823638987 3.823638987 3.823638987
3.797988597 3.797988597 3.797988597
3.546915418 3.546915418 3.546915418
3.255842558 3.255842558 3.255842558
3.814109375 3.814109375 3.814109375
3.770380618 3.770380618 3.770380618
3.036827001 3.036827001 3.036827001
3.363183058 3.363183058 3.363183058
3.316382372 3.316382372 3.316382372
3.527874151 3.527874151 3.527874151
3.632726148 3.632726148 3.632726148
3.343713863 3.343713863 3.343713863
3.524135723 3.524135723 3.524135723
3.034474326 3.034474326 3.034474326
3.23666358 3.23666358 3.23666358
4.081802991 4.081802991 4.081802991
3.172557919 3.172557919 3.172557919
3.312373192 3.312373192 3.312373192
3.743250479 3.743250479 3.743250479
3.460481034 3.460481034 3.460481034
3.660439443 3.660439443 3.660439443
3.42432021 3.42432021 3.42432021
3.909031905 3.909031905 3.909031905
4.015285318 4.015285318 4.015285318
3.370053219 3.370053219 3.370053219
3.262980551 3.262980551 3.262980551
4.000835263 4.000835263 4.000835263
3.392250213 3.392250213 3.392250213
3.662507339 3.662507339 3.662507339
3.27789191 3.27789191 3.27789191
4.093625052 4.093625052 4.093625052
3.687799066 3.687799066 3.687799066
3.397029994 3.397029994 3.397029994
3.253079092 3.253079092 3.253079092
3.786660125 3.786660125 3.786660125
4.026133943 4.026133943 4.026133943
3.351672711 3.351672711 3.351672711
3.333084619 3.333084619 3.333084619
4.162739894 4.162739894 4.162739894
3.483102156 3.483102156 3.483102156
3.452572519 3.452572519 3.452572519
3.303632998 3.303632998 3.303632998
3.725485722 3.725485722 3.725485722
3.431632979 3.431632979 3.431632979
3.282347493 3.282347493 3.282347493
3.723816078 3.723816078 3.723816078
3.245018217 3.245018217 3.245018217
4.087055745 4.087055745 4.087055745
3.350510371 3.350510371 3.350510371
3.356516567 3.356516567 3.356516567
3.737752642 3.737752642 3.737752642
3.485532463 3.485532463 3.485532463
3.60892156 3.60892156 3.60892156
3.28733864 3.28733864 3.28733864
3.785321104 3.785321104 3.785321104
3.439468019 3.439468019 3.439468019
3.317983247 3.317983247 3.317983247
3.769662009 3.769662009 3.769662009
4.174152894 4.174152894 4.174152894
3.364112045 3.364112045 3.364112045
3.915705363 3.915705363 3.915705363
4.212087932 4.212087932 4.212087932
3.4554693 3.4554693 3.4554693
3.63861064 3.63861064 3.63861064
3.290055386 3.290055386 3.290055386
3.747019186 3.747019186 3.747019186
3.705494315 3.705494315 3.705494315
3.226120846 3.226120846 3.226120846
3.761857041 3.761857041 3.761857041
3.457755076 3.457755076 3.457755076
3.632954336 3.632954336 3.632954336
3.306098973 3.306098973 3.306098973
3.745915499 3.745915499 3.745915499
3.336158024 3.336158024 3.336158024
3.313076428 3.313076428 3.313076428
3.737562744 3.737562744 3.737562744
3.337212861 3.337212861 3.337212861
3.796363247 3.796363247 3.796363247
3.941412378 3.941412378 3.941412378
3.47015515 3.47015515 3.47015515
3.204109023 3.204109023 3.204109023
3.86577818 3.86577818 3.86577818
3.533371075 3.533371075 3.533371075
3.397438589 3.397438589 3.397438589
3.797746188 3.797746188 3.797746188
3.287593378 3.287593378 3.287593378
3.732840223 3.732840223 3.732840223
3.560061367 3.560061367 3.560061367
3.795408216 3.795408216 3.795408216
3.344904193 3.344904193 3.344904193
3.758170364 3.758170364 3.758170364
3.646450974 3.646450974 3.646450974
3.450660037 3.450660037 3.450660037
3.374941159 3.374941159 3.374941159
3.74961552 3.74961552 3.74961552
3.722022541 3.722022541 3.722022541
3.767285588 3.767285588 3.767285588
3.369898468 3.369898468 3.369898468
3.70542003 3.70542003 3.70542003
3.517322211 3.517322211 3.517322211
3.525467329 3.525467329 3.525467329
3.424888406 3.424888406 3.424888406
3.69378362 3.69378362 3.69378362
3.496399874 3.496399874 3.496399874
3.710927633 3.710927633 3.710927633
3.508592291 3.508592291 3.508592291
3.771108031 3.771108031 3.771108031
3.462520657 3.462520657 3.462520657
3.717379241 3.717379241 3.717379241
3.832934666 3.832934666 3.832934666
3.718411862 3.718411862 3.718411862
3.657288547 3.657288547 3.657288547
3.738202672 3.738202672 3.738202672
3.716568181 3.716568181 3.716568181
3.7698017 3.7698017 3.7698017
3.717447295 3.717447295 3.717447295
3.723908672 3.723908672 3.723908672
3.087123763 3.087123763 3.087123763
3.018117761 3.018117761 3.018117761
3.566183973 3.566183973 3.566183973
3.309264208 3.309264208 3.309264208
3.546273758 3.546273758 3.546273758
4.057492784 4.057492784 4.057492784
4.186553669 4.186553669 4.186553669
7.488749298 7.488749298 7.488749298
7.343285769 7.343285769 7.343285769
7.102394092 7.102394092 7.102394092
7.135316564 7.135316564 7.135316564
7.082408609 7.082408609 7.082408609
6.659742723 6.659742723 6.659742723
6.553744094 6.553744094 6.553744094
6.50040365 6.50040365 6.50040365
7.527659337 7.527659337 7.527659337
7.476728818 7.476728818 7.476728818
7.497144113 7.497144113 7.497144113
6.326039579 6.326039579 6.326039579
7.281097241 7.281097241 7.281097241
7.166979326 7.166979326 7.166979326
7.082716512 7.082716512 7.082716512
6.178205741 6.178205741 6.178205741
6.051268267 6.051268267 6.051268267
7.059808986 7.059808986 7.059808986
6.876130252 6.876130252 6.876130252
6.795140029 6.795140029 6.795140029
5.926851387 5.926851387 5.926851387
5.8506779 5.8506779 5.8506779
6.534394327 6.534394327 6.534394327
6.563413857 6.563413857 6.563413857
5.800523999 5.800523999 5.800523999
7.407793309 7.407793309 7.407793309
7.171107699 7.171107699 7.171107699
6.462582246 6.462582246 6.462582246
6.301725431 6.301725431 6.301725431
5.944648002 5.944648002 5.944648002
6.295695436 6.295695436 6.295695436
5.903543209 5.903543209 5.903543209
6.25818218 6.25818218 6.25818218
5.774512875 5.774512875 5.774512875
5.40280988 5.40280988 5.40280988
7.10970138 7.10970138 7.10970138
6.207287028 6.207287028 6.207287028
5.425392325 5.425392325 5.425392325
5.916846841 5.916846841 5.916846841
5.523935874 5.523935874 5.523935874
5.287689411 5.287689411 5.287689411
6.687317696 6.687317696 6.687317696
6.724584638 6.724584638 6.724584638
5.963599931 5.963599931 5.963599931
5.399670409 5.399670409 5.399670409
5.156347828 5.156347828 5.156347828
6.737469765 6.737469765 6.737469765
5.747894369 5.747894369 5.747894369
6.405234759 6.405234759 6.405234759
5.086839486 5.086839486 5.086839486
5.722097663 5.722097663 5.722097663
6.70215515 6.70215515 6.70215515
6.385566522 6.385566522 6.385566522
7.323060163 7.323060163 7.323060163
6.376482228 6.376482228 6.376482228
7.483422145 7.483422145 7.483422145
5.065121798 5.065121798 5.065121798
6.349397476 6.349397476 6.349397476
7.485833056 7.485833056 7.485833056
5.028394198 5.028394198 5.028394198
5.031817857 5.031817857 5.031817857
7.512236436 7.512236436 7.512236436
5.012063666 5.012063666 5.012063666
7.022552525 7.022552525 7.022552525
4.962172009 4.962172009 4.962172009
5.469851904 5.469851904 5.469851904
4.925779914 4.925779914 4.925779914
5.497180968 5.497180968 5.497180968
6.130223435 6.130223435 6.130223435
6.798886859 6.798886859 6.798886859
4.844405143 4.844405143 4.844405143
5.416455925 5.416455925 5.416455925
6.664189337 6.664189337 6.664189337
4.819815409 4.819815409 4.819815409
5.403760332 5.403760332 5.403760332
4.788090977 4.788090977 4.788090977
5.370929413 5.370929413 5.370929413
6.062524491 6.062524491 6.062524491
4.773644686 4.773644686 4.773644686
5.850368853 5.850368853 5.850368853
4.817143838 4.817143838 4.817143838
6.61257005 6.61257005 6.61257005
4.67891345 4.67891345 4.67891345
5.264012148 5.264012148 5.264012148
5.147082634 5.147082634 5.147082634
6.444156799 6.444156799 6.444156799
4.646015099 4.646015099 4.646015099
5.721688662 5.721688662 5.721688662
6.285440832 6.285440832 6.285440832
5.362496661 5.362496661 5.362496661
5.602357506 5.602357506 5.602357506
6.267081232 6.267081232 6.267081232
5.321862596 5.321862596 5.321862596
4.489547255 4.489547255 4.489547255
5.011603663 5.011603663 5.011603663
5.674137499 5.674137499 5.674137499
5.466699002 5.466699002 5.466699002
6.174769012 6.174769012 6.174769012
4.607524807 4.607524807 4.607524807
5.181716137 5.181716137 5.181716137
4.941160566 4.941160566 4.941160566
5.440409944 5.440409944 5.440409944
6.396800584 6.396800584 6.396800584
4.445685803 4.445685803 4.445685803
4.866348002 4.866348002 4.866348002
5.413126502 5.413126502 5.413126502
4.807655381 4.807655381 4.807655381
5.401988732 5.401988732 5.401988732
6.223372253 6.223372253 6.223372253
4.366942066 4.366942066 4.366942066
4.76642387 4.76642387 4.76642387
5.372868901 5.372868901 5.372868901
5.322783857 5.322783857 5.322783857
6.010275936 6.010275936 6.010275936
4.373729503 4.373729503 4.373729503
4.908359761 4.908359761 4.908359761
4.981562915 4.981562915 4.981562915
5.171865446 5.171865446 5.171865446
5.801394118 5.801394118 5.801394118
4.375927958 4.375927958 4.375927958
4.284081746 4.284081746 4.284081746
4.657029244 4.657029244 4.657029244
5.225882295 5.225882295 5.225882295
4.748979889 4.748979889 4.748979889
5.12429411 5.12429411 5.12429411
5.703396276 5.703396276 5.703396276
4.298644522 4.298644522 4.298644522
4.106451934 4.106451934 4.106451934
4.48617142 4.48617142 4.48617142
5.161536587 5.161536587 5.161536587
4.597334318 4.597334318 4.597334318
5.094066262 5.094066262 5.094066262
5.74828771 5.74828771 5.74828771
4.775826043 4.775826043 4.775826043
5.537068941 5.537068941 5.537068941
4.182306691 4.182306691 4.182306691
4.566196858 4.566196858 4.566196858
4.527358664 4.527358664 4.527358664
5.023274823 5.023274823 5.023274823
5.655224173 5.655224173 5.655224173
4.535586517 4.535586517 4.535586517
4.033836839 4.033836839 4.033836839
4.49250562 4.49250562 4.49250562
4.141114053 4.141114053 4.141114053
4.19966093 4.19966093 4.19966093
4.592472672 4.592472672 4.592472672
4.893072338 4.893072338 4.893072338
4.069774046 4.069774046 4.069774046
4.613379443 4.613379443 4.613379443
4.869421662 4.869421662 4.869421662
4.036722608 4.036722608 4.036722608
4.605106497 4.605106497 4.605106497
4.800714034 4.800714034 4.800714034
4.405265627 4.405265627 4.405265627
4.77996769 4.77996769 4.77996769
5.331985797 5.331985797 5.331985797
4.2162471 4.2162471 4.2162471
4.731387222 4.731387222 4.731387222
5.135635909 5.135635909 5.135635909
3.93152395 3.93152395 3.93152395
4.455909094 4.455909094 4.455909094
5.128680665 5.128680665 5.128680665
4.325733789 4.325733789 4.325733789
4.942904254 4.942904254 4.942904254
4.408808451 4.408808451 4.408808451
5.091858733 5.091858733 5.091858733
3.920273706 3.920273706 3.920273706
4.292638197 4.292638197 4.292638197
4.741148773 4.741148773 4.741148773
5.069028993 5.069028993 5.069028993
3.867171899 3.867171899 3.867171899
4.234412186 4.234412186 4.234412186
4.645934519 4.645934519 4.645934519
5.023871715 5.023871715 5.023871715
3.82565395 3.82565395 3.82565395
4.2290725 4.2290725 4.2290725
4.312962474 4.312962474 4.312962474
4.573008749 4.573008749 4.573008749
5.029040088 5.029040088 5.029040088
3.867687216 3.867687216 3.867687216
4.119528267 4.119528267 4.119528267
4.047835399 4.047835399 4.047835399
4.628205291 4.628205291 4.628205291
4.946935814 4.946935814 4.946935814
4.183448066 4.183448066 4.183448066
4.935016204 4.935016204 4.935016204
3.790249658 3.790249658 3.790249658
4.176290183 4.176290183 4.176290183
4.515901524 4.515901524 4.515901524
4.905729019 4.905729019 4.905729019
3.757668794 3.757668794 3.757668794
4.167280073 4.167280073 4.167280073
4.474135248 4.474135248 4.474135248
4.857968561 4.857968561 4.857968561
3.745266771 3.745266771 3.745266771
4.175105958 4.175105958 4.175105958
4.857513216 4.857513216 4.857513216
3.778091886 3.778091886 3.778091886
4.035678357 4.035678357 4.035678357
4.398886088 4.398886088 4.398886088
4.475195551 4.475195551 4.475195551
3.752466766 3.752466766 3.752466766
3.984989811 3.984989811 3.984989811
4.325173936 4.325173936 4.325173936
4.354621477 4.354621477 4.354621477
3.735597611 3.735597611 3.735597611
3.994726847 3.994726847 3.994726847
4.294740315 4.294740315 4.294740315
4.31398662 4.31398662 4.31398662
4.685002352 4.685002352 4.685002352
3.691168001 3.691168001 3.691168001
3.91973558 3.91973558 3.91973558
4.094852715 4.094852715 4.094852715
4.128933201 4.128933201 4.128933201
4.646454619 4.646454619 4.646454619
3.638261612 3.638261612 3.638261612
4.415205837 4.415205837 4.415205837
4.566274256 4.566274256 4.566274256
3.695670553 3.695670553 3.695670553
3.891407136 3.891407136 3.891407136
4.559332445 4.559332445 4.559332445
3.695861134 3.695861134 3.695861134
4.220357904 4.220357904 4.220357904
4.554047398 4.554047398 4.554047398
3.902045062 3.902045062 3.902045062
4.195976773 4.195976773 4.195976773
4.501167394 4.501167394 4.501167394
3.596782203 3.596782203 3.596782203
3.907157788 3.907157788 3.907157788
3.833939584 3.833939584 3.833939584
4.171770633 4.171770633 4.171770633
4.485957872 4.485957872 4.485957872
3.685153881 3.685153881 3.685153881
3.808265752 3.808265752 3.808265752
4.125188747 4.125188747 4.125188747
4.458024756 4.458024756 4.458024756
3.583043911 3.583043911 3.583043911
3.900888247 3.900888247 3.900888247
4.066280751 4.066280751 4.066280751
4.395192447 4.395192447 4.395192447
3.595337902 3.595337902 3.595337902
4.188773647 4.188773647 4.188773647
4.35713513 4.35713513 4.35713513
3.618496368 3.618496368 3.618496368
3.777427882 3.777427882 3.777427882
3.694616803 3.694616803 3.694616803
4.041220107 4.041220107 4.041220107
4.417719207 4.417719207 4.417719207
3.565162633 3.565162633 3.565162633
3.831608976 3.831608976 3.831608976
3.995831638 3.995831638 3.995831638
4.314234516 4.314234516 4.314234516
3.595991636 3.595991636 3.595991636
3.841006185 3.841006185 3.841006185
3.920159066 3.920159066 3.920159066
4.323449553 4.323449553 4.323449553
3.594393691 3.594393691 3.594393691
3.817357414 3.817357414 3.817357414
3.794349748 3.794349748 3.794349748
3.813474974 3.813474974 3.813474974
3.88297729 3.88297729 3.88297729
4.34302563 4.34302563 4.34302563
3.56803812 3.56803812 3.56803812
3.705522332 3.705522332 3.705522332
3.703952767 3.703952767 3.703952767
3.965152054 3.965152054 3.965152054
4.288486935 4.288486935 4.288486935
3.848031997 3.848031997 3.848031997
3.795036414 3.795036414 3.795036414
3.867957386 3.867957386 3.867957386
4.288208975 4.288208975 4.288208975
3.760628737 3.760628737 3.760628737
3.760990354 3.760990354 3.760990354
3.892602547 3.892602547 3.892602547
4.208449818 4.208449818 4.208449818
3.521755447 3.521755447 3.521755447
3.750568927 3.750568927 3.750568927
4.088597589 4.088597589 4.088597589
3.545934348 3.545934348 3.545934348
3.600093869 3.600093869 3.600093869
4.166000223 4.166000223 4.166000223
3.53374202 3.53374202 3.53374202
3.637330891 3.637330891 3.637330891
3.885473603 3.885473603 3.885473603
3.616965574 3.616965574 3.616965574
3.655805914 3.655805914 3.655805914
3.793714124 3.793714124 3.793714124
4.143047183 4.143047183 4.143047183
3.951443359 3.951443359 3.951443359
3.959154071 3.959154071 3.959154071
3.52104468 3.52104468 3.52104468
3.591812045 3.591812045 3.591812045
4.124727633 4.124727633 4.124727633
3.496214867 3.496214867 3.496214867
3.600511807 3.600511807 3.600511807
3.786986023 3.786986023 3.786986023
3.598130186 3.598130186 3.598130186
3.617042714 3.617042714 3.617042714
3.731973547 3.731973547 3.731973547
4.140809394 4.140809394 4.140809394
3.713121224 3.713121224 3.713121224
3.658582143 3.658582143 3.658582143
3.735896305 3.735896305 3.735896305
3.982982426 3.982982426 3.982982426
3.661827884 3.661827884 3.661827884
3.584552073 3.584552073 3.584552073
3.583179081 3.583179081 3.583179081
3.700145065 3.700145065 3.700145065
3.979853696 3.979853696 3.979853696
3.623180084 3.623180084 3.623180084
3.661177381 3.661177381 3.661177381
3.705695357 3.705695357 3.705695357
3.951899299 3.951899299 3.951899299
3.817368461 3.817368461 3.817368461
3.869939268 3.869939268 3.869939268
3.438187842 3.438187842 3.438187842
3.652938783 3.652938783 3.652938783
3.590896862 3.590896862 3.590896862
3.550241628 3.550241628 3.550241628
3.671402405 3.671402405 3.671402405
3.777153846 3.777153846 3.777153846
3.426217362 3.426217362 3.426217362
3.562032397 3.562032397 3.562032397
3.879174844 3.879174844 3.879174844
3.670749161 3.670749161 3.670749161
3.744535792 3.744535792 3.744535792
3.81411622 3.81411622 3.81411622
3.506458818 3.506458818 3.506458818
4.346946997 4.346946997 4.346946997
3.596588205 3.596588205 3.596588205
3.534025719 3.534025719 3.534025719
3.608921384 3.608921384 3.608921384
3.748395678 3.748395678 3.748395678
3.397325749 3.397325749 3.397325749
3.514488793 3.514488793 3.514488793
3.871436898 3.871436898 3.871436898
3.696870419 3.696870419 3.696870419
3.833982176 3.833982176 3.833982176
3.358441112 3.358441112 3.358441112
3.594461175 3.594461175 3.594461175
3.619491649 3.619491649 3.619491649
3.679844222 3.679844222 3.679844222
3.752158027 3.752158027 3.752158027
3.568318203 3.568318203 3.568318203
3.707850781 3.707850781 3.707850781
3.833368734 3.833368734 3.833368734
3.342410933 3.342410933 3.342410933
3.780913683 3.780913683 3.780913683
3.650067117 3.650067117 3.650067117
3.788417483 3.788417483 3.788417483
3.361197966 3.361197966 3.361197966
3.741598214 3.741598214 3.741598214
3.874462391 3.874462391 3.874462391
3.379660898 3.379660898 3.379660898
3.589877091 3.589877091 3.589877091
4.225491944 4.225491944 4.225491944
3.451013077 3.451013077 3.451013077
3.45100648 3.45100648 3.45100648
3.649624054 3.649624054 3.649624054
3.586195114 3.586195114 3.586195114
3.673263552 3.673263552 3.673263552
3.437322677 3.437322677 3.437322677
4.207346415 4.207346415 4.207346415
3.625535702 3.625535702 3.625535702
3.618548857 3.618548857 3.618548857
3.529311034 3.529311034 3.529311034
3.521280192 3.521280192 3.521280192
3.555621646 3.555621646 3.555621646
3.6889615 3.6889615 3.6889615
3.667149056 3.667149056 3.667149056
3.508997722 3.508997722 3.508997722
3.607170023 3.607170023 3.607170023
3.668611195 3.668611195 3.668611195
3.591276061 3.591276061 3.591276061
3.629796055 3.629796055 3.629796055
3.690539968 3.690539968 3.690539968
3.364478147 3.364478147 3.364478147
3.583754461 3.583754461 3.583754461
3.492483816 3.492483816 3.492483816
3.546076682 3.546076682 3.546076682
3.611669766 3.611669766 3.611669766
3.727194686 3.727194686 3.727194686
3.30829468 3.30829468 3.30829468
3.516664668 3.516664668 3.516664668
3.293481659 3.293481659 3.293481659
3.687957759 3.687957759 3.687957759
3.46932846 3.46932846 3.46932846
3.489110999 3.489110999 3.489110999
4.11462239 4.11462239 4.11462239
3.40999579 3.40999579 3.40999579
3.356262835 3.356262835 3.356262835
3.564085073 3.564085073 3.564085073
3.683618051 3.683618051 3.683618051
3.328617476 3.328617476 3.328617476
3.530384582 3.530384582 3.530384582
3.480819761 3.480819761 3.480819761
3.616081438 3.616081438 3.616081438
3.647793932 3.647793932 3.647793932
3.50653933 3.50653933 3.50653933
3.424758869 3.424758869 3.424758869
3.651791889 3.651791889 3.651791889
3.337297026 3.337297026 3.337297026
4.070082024 4.070082024 4.070082024
3.40038312 3.40038312 3.40038312
3.587039896 3.587039896 3.587039896
3.633575225 3.633575225 3.633575225
3.410613582 3.410613582 3.410613582
3.624850036 3.624850036 3.624850036
3.527693619 3.527693619 3.527693619
3.612725714 3.612725714 3.612725714
3.37409006 3.37409006 3.37409006
4.054517791 4.054517791 4.054517791
3.560920841 3.560920841 3.560920841
4.057412356 4.057412356 4.057412356
3.502697713 3.502697713 3.502697713
4.05352843 4.05352843 4.05352843
3.480648638 3.480648638 3.480648638
