x	y	z
2.436371589 2.436371589 2.436371589
2.45039921 2.45039921 2.45039921
2.447564224 2.447564224 2.447564224
2.464664414 2.464664414 2.464664414
2.500292081 2.500292081 2.500292081
2.414493267 2.414493267 2.414493267
2.464541541 2.464541541 2.464541541
2.483595815 2.483595815 2.483595815
2.443095766 2.443095766 2.443095766
2.443312747 2.443312747 2.443312747
2.454695427 2.454695427 2.454695427
2.447598599 2.447598599 2.447598599
2.48338556 2.48338556 2.48338556
2.484952597 2.484952597 2.484952597
2.485121816 2.485121816 2.485121816
2.439455811 2.439455811 2.439455811
2.400977639 2.400977639 2.400977639
2.467295906 2.467295906 2.467295906
2.469248751 2.469248751 2.469248751
2.468222836 2.468222836 2.468222836
2.412099706 2.412099706 2.412099706
2.480640062 2.480640062 2.480640062
2.443345667 2.443345667 2.443345667
2.45251407 2.45251407 2.45251407
2.432969093 2.432969093 2.432969093
2.455173419 2.455173419 2.455173419
2.438939787 2.438939787 2.438939787
2.446475441 2.446475441 2.446475441
2.43847996 2.43847996 2.43847996
2.424706579 2.424706579 2.424706579
2.459991507 2.459991507 2.459991507
2.47810647 2.47810647 2.47810647
2.405241072 2.405241072 2.405241072
2.481827867 2.481827867 2.481827867
2.453516891 2.453516891 2.453516891
2.472450302 2.472450302 2.472450302
2.402616104 2.402616104 2.402616104
2.474671128 2.474671128 2.474671128
2.448015449 2.448015449 2.448015449
2.434852712 2.434852712 2.434852712
2.442476177 2.442476177 2.442476177
2.399207379 2.399207379 2.399207379
2.44928181 2.44928181 2.44928181
2.444007523 2.444007523 2.444007523
2.429934061 2.429934061 2.429934061
2.405233666 2.405233666 2.405233666
2.456386083 2.456386083 2.456386083
2.445113738 2.445113738 2.445113738
2.418756786 2.418756786 2.418756786
2.410648919 2.410648919 2.410648919
2.450861062 2.450861062 2.450861062
2.440389375 2.440389375 2.440389375
2.426994787 2.426994787 2.426994787
2.408504669 2.408504669 2.408504669
2.434880264 2.434880264 2.434880264
2.447042208 2.447042208 2.447042208
2.41317657 2.41317657 2.41317657
2.614281727 2.614281727 2.614281727
2.471824805 2.471824805 2.471824805
2.438905697 2.438905697 2.438905697
2.415559995 2.415559995 2.415559995
2.496779806 2.496779806 2.496779806
2.430425759 2.430425759 2.430425759
2.444437375 2.444437375 2.444437375
2.434478689 2.434478689 2.434478689
2.44771215 2.44771215 2.44771215
2.435045595 2.435045595 2.435045595
2.439446717 2.439446717 2.439446717
2.448762129 2.448762129 2.448762129
2.452698817 2.452698817 2.452698817
2.473245721 2.473245721 2.473245721
2.465112614 2.465112614 2.465112614
2.437139392 2.437139392 2.437139392
2.395208249 2.395208249 2.395208249
2.493396836 2.493396836 2.493396836
2.43175764 2.43175764 2.43175764
2.442614939 2.442614939 2.442614939
2.430328443 2.430328443 2.430328443
2.408280813 2.408280813 2.408280813
2.437557086 2.437557086 2.437557086
2.438249548 2.438249548 2.438249548
2.452787549 2.452787549 2.452787549
2.451010876 2.451010876 2.451010876
2.459044525 2.459044525 2.459044525
2.430039394 2.430039394 2.430039394
2.435799414 2.435799414 2.435799414
2.451843104 2.451843104 2.451843104
2.442047326 2.442047326 2.442047326
2.470372778 2.470372778 2.470372778
2.427253927 2.427253927 2.427253927
2.443262112 2.443262112 2.443262112
2.403293605 2.403293605 2.403293605
2.491301278 2.491301278 2.491301278
2.428264622 2.428264622 2.428264622
2.44421514 2.44421514 2.44421514
2.40422445 2.40422445 2.40422445
2.482124332 2.482124332 2.482124332
2.434219476 2.434219476 2.434219476
2.44290727 2.44290727 2.44290727
2.409512627 2.409512627 2.409512627
2.464227411 2.464227411 2.464227411
2.434620097 2.434620097 2.434620097
2.42644739 2.42644739 2.42644739
2.438732775 2.438732775 2.438732775
2.428669671 2.428669671 2.428669671
2.479968034 2.479968034 2.479968034
2.412659139 2.412659139 2.412659139
2.435870599 2.435870599 2.435870599
2.437301941 2.437301941 2.437301941
2.422384654 2.422384654 2.422384654
2.402734439 2.402734439 2.402734439
2.457173639 2.457173639 2.457173639
2.422052365 2.422052365 2.422052365
2.442387326 2.442387326 2.442387326
2.392712585 2.392712585 2.392712585
2.482890164 2.482890164 2.482890164
2.425031579 2.425031579 2.425031579
2.432272391 2.432272391 2.432272391
2.428475742 2.428475742 2.428475742
2.394158289 2.394158289 2.394158289
2.398274908 2.398274908 2.398274908
2.46045718 2.46045718 2.46045718
2.444524284 2.444524284 2.444524284
2.463649898 2.463649898 2.463649898
2.437759827 2.437759827 2.437759827
2.409402536 2.409402536 2.409402536
2.478510028 2.478510028 2.478510028
2.469787958 2.469787958 2.469787958
2.427532134 2.427532134 2.427532134
2.443908668 2.443908668 2.443908668
2.406550788 2.406550788 2.406550788
2.451660108 2.451660108 2.451660108
2.475189522 2.475189522 2.475189522
2.429932315 2.429932315 2.429932315
2.441042588 2.441042588 2.441042588
2.409403058 2.409403058 2.409403058
2.456886616 2.456886616 2.456886616
2.473149775 2.473149775 2.473149775
2.422342862 2.422342862 2.422342862
2.438573063 2.438573063 2.438573063
2.410572826 2.410572826 2.410572826
2.45906373 2.45906373 2.45906373
2.469934116 2.469934116 2.469934116
2.418084219 2.418084219 2.418084219
2.436508197 2.436508197 2.436508197
2.407938657 2.407938657 2.407938657
2.468966295 2.468966295 2.468966295
2.461082229 2.461082229 2.461082229
2.421311077 2.421311077 2.421311077
2.4393193 2.4393193 2.4393193
2.406189995 2.406189995 2.406189995
2.481281395 2.481281395 2.481281395
2.453457695 2.453457695 2.453457695
2.42209712 2.42209712 2.42209712
2.440910244 2.440910244 2.440910244
2.410110235 2.410110235 2.410110235
2.461740189 2.461740189 2.461740189
2.419437753 2.419437753 2.419437753
2.454467804 2.454467804 2.454467804
2.430997154 2.430997154 2.430997154
2.398837957 2.398837957 2.398837957
2.46975056 2.46975056 2.46975056
2.427922063 2.427922063 2.427922063
2.442257461 2.442257461 2.442257461
2.447648945 2.447648945 2.447648945
2.39270942 2.39270942 2.39270942
2.45418641 2.45418641 2.45418641
2.411944362 2.411944362 2.411944362
2.425621407 2.425621407 2.425621407
2.431022355 2.431022355 2.431022355
2.425699944 2.425699944 2.425699944
2.398937361 2.398937361 2.398937361
2.446291061 2.446291061 2.446291061
2.424289769 2.424289769 2.424289769
2.423514332 2.423514332 2.423514332
2.438218118 2.438218118 2.438218118
2.432018452 2.432018452 2.432018452
2.476485796 2.476485796 2.476485796
2.440706932 2.440706932 2.440706932
2.423296889 2.423296889 2.423296889
2.432326624 2.432326624 2.432326624
2.408670151 2.408670151 2.408670151
2.480450206 2.480450206 2.480450206
2.425107065 2.425107065 2.425107065
2.456481661 2.456481661 2.456481661
2.428732805 2.428732805 2.428732805
2.388063055 2.388063055 2.388063055
2.454950569 2.454950569 2.454950569
2.408500981 2.408500981 2.408500981
2.44596989 2.44596989 2.44596989
2.433621386 2.433621386 2.433621386
2.376325728 2.376325728 2.376325728
2.442906049 2.442906049 2.442906049
2.403286289 2.403286289 2.403286289
2.427798699 2.427798699 2.427798699
2.427589728 2.427589728 2.427589728
2.391391803 2.391391803 2.391391803
2.377870196 2.377870196 2.377870196
2.446450229 2.446450229 2.446450229
2.410787649 2.410787649 2.410787649
2.415562332 2.415562332 2.415562332
2.434744533 2.434744533 2.434744533
2.421546168 2.421546168 2.421546168
2.466260537 2.466260537 2.466260537
2.434861591 2.434861591 2.434861591
2.4010413 2.4010413 2.4010413
2.427993485 2.427993485 2.427993485
2.391034613 2.391034613 2.391034613
2.474208435 2.474208435 2.474208435
2.421032997 2.421032997 2.421032997
2.451022307 2.451022307 2.451022307
2.426240668 2.426240668 2.426240668
2.388617611 2.388617611 2.388617611
2.467256523 2.467256523 2.467256523
2.412322389 2.412322389 2.412322389
2.431412528 2.431412528 2.431412528
2.438385158 2.438385158 2.438385158
2.393926441 2.393926441 2.393926441
2.411117255 2.411117255 2.411117255
2.394210419 2.394210419 2.394210419
2.423046516 2.423046516 2.423046516
2.413397393 2.413397393 2.413397393
2.416131844 2.416131844 2.416131844
2.398178232 2.398178232 2.398178232
2.457892685 2.457892685 2.457892685
2.416002654 2.416002654 2.416002654
2.407996405 2.407996405 2.407996405
2.430691571 2.430691571 2.430691571
2.408456606 2.408456606 2.408456606
2.454314695 2.454314695 2.454314695
2.434675205 2.434675205 2.434675205
2.401084978 2.401084978 2.401084978
2.422446015 2.422446015 2.422446015
2.398965224 2.398965224 2.398965224
2.476804474 2.476804474 2.476804474
2.426658074 2.426658074 2.426658074
2.450806733 2.450806733 2.450806733
2.426836861 2.426836861 2.426836861
2.394857741 2.394857741 2.394857741
2.464400594 2.464400594 2.464400594
2.408761613 2.408761613 2.408761613
2.432486082 2.432486082 2.432486082
2.437076529 2.437076529 2.437076529
2.399073534 2.399073534 2.399073534
2.42456869 2.42456869 2.42456869
2.399991939 2.399991939 2.399991939
2.4352732 2.4352732 2.4352732
2.427132297 2.427132297 2.427132297
2.421118402 2.421118402 2.421118402
2.392837662 2.392837662 2.392837662
2.472486886 2.472486886 2.472486886
2.424729835 2.424729835 2.424729835
2.416861829 2.416861829 2.416861829
2.4314856 2.4314856 2.4314856
2.403863129 2.403863129 2.403863129
2.462934612 2.462934612 2.462934612
2.433196423 2.433196423 2.433196423
2.407065444 2.407065444 2.407065444
2.418264094 2.418264094 2.418264094
2.406587824 2.406587824 2.406587824
2.48205611 2.48205611 2.48205611
2.410960203 2.410960203 2.410960203
2.431096132 2.431096132 2.431096132
2.419328281 2.419328281 2.419328281
2.396296088 2.396296088 2.396296088
2.44965361 2.44965361 2.44965361
2.393669969 2.393669969 2.393669969
2.427836346 2.427836346 2.427836346
2.416531005 2.416531005 2.416531005
2.41698719 2.41698719 2.41698719
2.386651271 2.386651271 2.386651271
2.46189021 2.46189021 2.46189021
2.413678523 2.413678523 2.413678523
2.408517212 2.408517212 2.408517212
2.41927 2.41927 2.41927
2.406309502 2.406309502 2.406309502
2.464687481 2.464687481 2.464687481
2.413932544 2.413932544 2.413932544
2.41468395 2.41468395 2.41468395
2.417547083 2.417547083 2.417547083
2.40792419 2.40792419 2.40792419
2.391329416 2.391329416 2.391329416
2.416926723 2.416926723 2.416926723
2.403078805 2.403078805 2.403078805
2.417609427 2.417609427 2.417609427
2.400402471 2.400402471 2.400402471
2.457698247 2.457698247 2.457698247
2.406555243 2.406555243 2.406555243
2.433225826 2.433225826 2.433225826
2.430184107 2.430184107 2.430184107
2.375324443 2.375324443 2.375324443
2.441508475 2.441508475 2.441508475
2.405311082 2.405311082 2.405311082
2.422840417 2.422840417 2.422840417
2.411914532 2.411914532 2.411914532
2.414593712 2.414593712 2.414593712
2.390601381 2.390601381 2.390601381
2.480536759 2.480536759 2.480536759
2.418403352 2.418403352 2.418403352
2.400731618 2.400731618 2.400731618
2.425969599 2.425969599 2.425969599
2.381632208 2.381632208 2.381632208
2.472565773 2.472565773 2.472565773
2.398427447 2.398427447 2.398427447
2.419898208 2.419898208 2.419898208
2.421489896 2.421489896 2.421489896
2.37185713 2.37185713 2.37185713
2.402714418 2.402714418 2.402714418
2.420415803 2.420415803 2.420415803
2.392768987 2.392768987 2.392768987
2.40946416 2.40946416 2.40946416
2.373367129 2.373367129 2.373367129
2.449866974 2.449866974 2.449866974
2.405324282 2.405324282 2.405324282
2.424868136 2.424868136 2.424868136
2.425996827 2.425996827 2.425996827
2.383002461 2.383002461 2.383002461
2.437591449 2.437591449 2.437591449
2.396728167 2.396728167 2.396728167
2.413358541 2.413358541 2.413358541
2.413598397 2.413598397 2.413598397
2.417226152 2.417226152 2.417226152
2.377961567 2.377961567 2.377961567
2.460617758 2.460617758 2.460617758
2.419186933 2.419186933 2.419186933
2.397928067 2.397928067 2.397928067
2.413898782 2.413898782 2.413898782
2.38824946 2.38824946 2.38824946
2.46554273 2.46554273 2.46554273
2.388971263 2.388971263 2.388971263
2.41288638 2.41288638 2.41288638
2.412100561 2.412100561 2.412100561
2.384136734 2.384136734 2.384136734
2.406451508 2.406451508 2.406451508
2.411849623 2.411849623 2.411849623
2.42002336 2.42002336 2.42002336
2.422230926 2.422230926 2.422230926
2.399448751 2.399448751 2.399448751
2.417360576 2.417360576 2.417360576
2.396574134 2.396574134 2.396574134
2.465361607 2.465361607 2.465361607
2.389266234 2.389266234 2.389266234
2.40233524 2.40233524 2.40233524
2.407839464 2.407839464 2.407839464
2.411799768 2.411799768 2.411799768
2.383369449 2.383369449 2.383369449
2.461198591 2.461198591 2.461198591
2.407496483 2.407496483 2.407496483
2.397809882 2.397809882 2.397809882
2.422740075 2.422740075 2.422740075
2.418207142 2.418207142 2.418207142
2.4070674 2.4070674 2.4070674
2.439721491 2.439721491 2.439721491
2.416824405 2.416824405 2.416824405
2.410434179 2.410434179 2.410434179
2.399701126 2.399701126 2.399701126
2.418893957 2.418893957 2.418893957
2.419366778 2.419366778 2.419366778
2.435019868 2.435019868 2.435019868
2.403887672 2.403887672 2.403887672
2.406278692 2.406278692 2.406278692
2.402482313 2.402482313 2.402482313
2.418063664 2.418063664 2.418063664
2.401701217 2.401701217 2.401701217
2.386548937 2.386548937 2.386548937
2.446338622 2.446338622 2.446338622
2.406001543 2.406001543 2.406001543
2.40181194 2.40181194 2.40181194
2.395828838 2.395828838 2.395828838
2.429321252 2.429321252 2.429321252
2.380090642 2.380090642 2.380090642
2.464750377 2.464750377 2.464750377
2.390872498 2.390872498 2.390872498
2.410508739 2.410508739 2.410508739
2.408794696 2.408794696 2.408794696
2.397329789 2.397329789 2.397329789
2.407813631 2.407813631 2.407813631
2.466372107 2.466372107 2.466372107
2.405202642 2.405202642 2.405202642
2.404085848 2.404085848 2.404085848
2.423219052 2.423219052 2.423219052
2.41472906 2.41472906 2.41472906
2.369736412 2.369736412 2.369736412
2.433197573 2.433197573 2.433197573
2.414110886 2.414110886 2.414110886
2.40940127 2.40940127 2.40940127
2.400283124 2.400283124 2.400283124
2.400604427 2.400604427 2.400604427
2.386915381 2.386915381 2.386915381
2.429420018 2.429420018 2.429420018
2.397956606 2.397956606 2.397956606
2.390942666 2.390942666 2.390942666
2.409728055 2.409728055 2.409728055
2.423446839 2.423446839 2.423446839
2.340991683 2.340991683 2.340991683
2.405095611 2.405095611 2.405095611
2.442302354 2.442302354 2.442302354
2.399896488 2.399896488 2.399896488
2.40539827 2.40539827 2.40539827
2.388129647 2.388129647 2.388129647
2.406144845 2.406144845 2.406144845
2.374132424 2.374132424 2.374132424
2.465716447 2.465716447 2.465716447
2.391366771 2.391366771 2.391366771
2.415556191 2.415556191 2.415556191
2.397816019 2.397816019 2.397816019
2.401235306 2.401235306 2.401235306
2.37057906 2.37057906 2.37057906
2.454256738 2.454256738 2.454256738
2.404769175 2.404769175 2.404769175
2.399949468 2.399949468 2.399949468
2.419276463 2.419276463 2.419276463
2.415583759 2.415583759 2.415583759
2.360043861 2.360043861 2.360043861
2.437654906 2.437654906 2.437654906
2.402571418 2.402571418 2.402571418
2.409996282 2.409996282 2.409996282
2.39885652 2.39885652 2.39885652
2.415039812 2.415039812 2.415039812
2.398355887 2.398355887 2.398355887
2.430888061 2.430888061 2.430888061
2.393497885 2.393497885 2.393497885
2.384524479 2.384524479 2.384524479
2.406548568 2.406548568 2.406548568
2.411563359 2.411563359 2.411563359
2.377278377 2.377278377 2.377278377
2.397244931 2.397244931 2.397244931
2.453308871 2.453308871 2.453308871
2.408803003 2.408803003 2.408803003
2.410989083 2.410989083 2.410989083
2.382628413 2.382628413 2.382628413
2.406705403 2.406705403 2.406705403
2.388608794 2.388608794 2.388608794
2.457321839 2.457321839 2.457321839
2.417414588 2.417414588 2.417414588
2.398493833 2.398493833 2.398493833
2.391449935 2.391449935 2.391449935
2.4115035 2.4115035 2.4115035
2.383462143 2.383462143 2.383462143
2.430095042 2.430095042 2.430095042
2.379042702 2.379042702 2.379042702
2.396676601 2.396676601 2.396676601
2.40185504 2.40185504 2.40185504
2.398092605 2.398092605 2.398092605
2.358075326 2.358075326 2.358075326
2.44700948 2.44700948 2.44700948
2.396893379 2.396893379 2.396893379
2.39629671 2.39629671 2.39629671
2.397366531 2.397366531 2.397366531
2.420096969 2.420096969 2.420096969
2.377939064 2.377939064 2.377939064
2.38569148 2.38569148 2.38569148
2.4461402 2.4461402 2.4461402
2.397562318 2.397562318 2.397562318
2.399727062 2.399727062 2.399727062
2.409365486 2.409365486 2.409365486
2.409979615 2.409979615 2.409979615
2.359231506 2.359231506 2.359231506
2.432674968 2.432674968 2.432674968
2.404703496 2.404703496 2.404703496
2.416316484 2.416316484 2.416316484
2.383126863 2.383126863 2.383126863
2.401223887 2.401223887 2.401223887
2.34503612 2.34503612 2.34503612
2.448723197 2.448723197 2.448723197
2.406152543 2.406152543 2.406152543
2.396857148 2.396857148 2.396857148
2.399241983 2.399241983 2.399241983
2.403769175 2.403769175 2.403769175
2.386915075 2.386915075 2.386915075
2.399430563 2.399430563 2.399430563
2.38770062 2.38770062 2.38770062
2.402241484 2.402241484 2.402241484
2.404948044 2.404948044 2.404948044
2.397508678 2.397508678 2.397508678
2.352431943 2.352431943 2.352431943
2.449839787 2.449839787 2.449839787
2.381324755 2.381324755 2.381324755
2.399543018 2.399543018 2.399543018
2.37931719 2.37931719 2.37931719
2.405375652 2.405375652 2.405375652
2.375848205 2.375848205 2.375848205
2.3898956 2.3898956 2.3898956
2.466383429 2.466383429 2.466383429
2.393739397 2.393739397 2.393739397
2.396889889 2.396889889 2.396889889
2.419851823 2.419851823 2.419851823
2.404426694 2.404426694 2.404426694
2.39204351 2.39204351 2.39204351
2.407938626 2.407938626 2.407938626
2.411147921 2.411147921 2.411147921
2.414396425 2.414396425 2.414396425
2.397270511 2.397270511 2.397270511
2.406383568 2.406383568 2.406383568
2.38917772 2.38917772 2.38917772
2.458840172 2.458840172 2.458840172
2.417402662 2.417402662 2.417402662
2.393529876 2.393529876 2.393529876
2.401953725 2.401953725 2.401953725
2.405968743 2.405968743 2.405968743
2.391530912 2.391530912 2.391530912
2.403288867 2.403288867 2.403288867
2.389177154 2.389177154 2.389177154
2.387149962 2.387149962 2.387149962
2.399348329 2.399348329 2.399348329
2.418880723 2.418880723 2.418880723
2.391081408 2.391081408 2.391081408
2.450233088 2.450233088 2.450233088
2.389812765 2.389812765 2.389812765
2.393354574 2.393354574 2.393354574
2.391399479 2.391399479 2.391399479
2.416107039 2.416107039 2.416107039
2.37209893 2.37209893 2.37209893
2.388221301 2.388221301 2.388221301
2.449343433 2.449343433 2.449343433
2.402808386 2.402808386 2.402808386
2.387907543 2.387907543 2.387907543
2.413408916 2.413408916 2.413408916
2.394896103 2.394896103 2.394896103
2.359448395 2.359448395 2.359448395
2.405000295 2.405000295 2.405000295
2.400196889 2.400196889 2.400196889
2.408258664 2.408258664 2.408258664
2.402124818 2.402124818 2.402124818
2.407097463 2.407097463 2.407097463
2.364892011 2.364892011 2.364892011
2.4533061 2.4533061 2.4533061
2.405253233 2.405253233 2.405253233
2.404775292 2.404775292 2.404775292
2.395530194 2.395530194 2.395530194
2.402890008 2.402890008 2.402890008
2.376670417 2.376670417 2.376670417
2.45390446 2.45390446 2.45390446
2.401360074 2.401360074 2.401360074
2.407810749 2.407810749 2.407810749
2.398482892 2.398482892 2.398482892
2.399308941 2.399308941 2.399308941
2.351122741 2.351122741 2.351122741
2.454424602 2.454424602 2.454424602
2.391232455 2.391232455 2.391232455
2.401672695 2.401672695 2.401672695
2.403781811 2.403781811 2.403781811
2.390436456 2.390436456 2.390436456
2.379223072 2.379223072 2.379223072
2.407046393 2.407046393 2.407046393
2.39104443 2.39104443 2.39104443
2.39376013 2.39376013 2.39376013
2.399219728 2.399219728 2.399219728
2.409966885 2.409966885 2.409966885
2.361256248 2.361256248 2.361256248
2.37454569 2.37454569 2.37454569
2.466566169 2.466566169 2.466566169
2.39552532 2.39552532 2.39552532
2.400350545 2.400350545 2.400350545
2.402664105 2.402664105 2.402664105
2.393392882 2.393392882 2.393392882
2.604032325 2.604032325 2.604032325
2.425939943 2.425939943 2.425939943
2.401473635 2.401473635 2.401473635
2.411974686 2.411974686 2.411974686
2.388112676 2.388112676 2.388112676
2.398644302 2.398644302 2.398644302
2.385915938 2.385915938 2.385915938
2.438265755 2.438265755 2.438265755
2.394964938 2.394964938 2.394964938
2.402499178 2.402499178 2.402499178
2.391047002 2.391047002 2.391047002
2.406730955 2.406730955 2.406730955
2.387270995 2.387270995 2.387270995
2.367741962 2.367741962 2.367741962
2.461165584 2.461165584 2.461165584
2.406595429 2.406595429 2.406595429
2.397718762 2.397718762 2.397718762
2.396638268 2.396638268 2.396638268
2.400067246 2.400067246 2.400067246
2.383137942 2.383137942 2.383137942
2.36995054 2.36995054 2.36995054
2.3934999 2.3934999 2.3934999
2.407097141 2.407097141 2.407097141
2.401745879 2.401745879 2.401745879
2.396165024 2.396165024 2.396165024
2.378546819 2.378546819 2.378546819
2.424273002 2.424273002 2.424273002
2.389415616 2.389415616 2.389415616
2.405150917 2.405150917 2.405150917
2.396187325 2.396187325 2.396187325
2.390474888 2.390474888 2.390474888
2.689011416 2.689011416 2.689011416
2.516506708 2.516506708 2.516506708
2.404966214 2.404966214 2.404966214
2.418137046 2.418137046 2.418137046
2.382839503 2.382839503 2.382839503
2.394147656 2.394147656 2.394147656
2.374509087 2.374509087 2.374509087
2.446066557 2.446066557 2.446066557
2.39973544 2.39973544 2.39973544
2.391411506 2.391411506 2.391411506
2.393741947 2.393741947 2.393741947
2.415009757 2.415009757 2.415009757
2.599718061 2.599718061 2.599718061
2.483365593 2.483365593 2.483365593
2.469899666 2.469899666 2.469899666
2.412131843 2.412131843 2.412131843
2.405046536 2.405046536 2.405046536
2.395945873 2.395945873 2.395945873
2.398858921 2.398858921 2.398858921
2.394083408 2.394083408 2.394083408
2.36461473 2.36461473 2.36461473
2.397277728 2.397277728 2.397277728
2.39593366 2.39593366 2.39593366
2.412055461 2.412055461 2.412055461
2.373949759 2.373949759 2.373949759
2.346808201 2.346808201 2.346808201
2.369442948 2.369442948 2.369442948
2.408368175 2.408368175 2.408368175
2.396761416 2.396761416 2.396761416
2.396579153 2.396579153 2.396579153
2.400203344 2.400203344 2.400203344
2.398326284 2.398326284 2.398326284
2.380578162 2.380578162 2.380578162
2.394865656 2.394865656 2.394865656
2.397999391 2.397999391 2.397999391
2.397921085 2.397921085 2.397921085
2.42313207 2.42313207 2.42313207
2.653507835 2.653507835 2.653507835
2.609279745 2.609279745 2.609279745
2.421175065 2.421175065 2.421175065
2.398874481 2.398874481 2.398874481
2.41426435 2.41426435 2.41426435
2.377419275 2.377419275 2.377419275
2.378768883 2.378768883 2.378768883
2.361484165 2.361484165 2.361484165
2.446719326 2.446719326 2.446719326
2.395291942 2.395291942 2.395291942
2.401348184 2.401348184 2.401348184
2.402352045 2.402352045 2.402352045
2.388582939 2.388582939 2.388582939
2.38134351 2.38134351 2.38134351
2.375470151 2.375470151 2.375470151
2.394439641 2.394439641 2.394439641
2.392929271 2.392929271 2.392929271
2.401203336 2.401203336 2.401203336
2.361445406 2.361445406 2.361445406
2.576872242 2.576872242 2.576872242
2.384701032 2.384701032 2.384701032
2.429690852 2.429690852 2.429690852
2.403086653 2.403086653 2.403086653
2.398398239 2.398398239 2.398398239
2.384708954 2.384708954 2.384708954
2.401769681 2.401769681 2.401769681
2.381153683 2.381153683 2.381153683
2.410577458 2.410577458 2.410577458
2.384916186 2.384916186 2.384916186
2.395889096 2.395889096 2.395889096
2.402923667 2.402923667 2.402923667
2.417276091 2.417276091 2.417276091
2.668875301 2.668875301 2.668875301
2.692104718 2.692104718 2.692104718
2.456347152 2.456347152 2.456347152
2.403131108 2.403131108 2.403131108
2.415896405 2.415896405 2.415896405
2.380552378 2.380552378 2.380552378
2.362186071 2.362186071 2.362186071
2.358928509 2.358928509 2.358928509
2.448706184 2.448706184 2.448706184
2.410475421 2.410475421 2.410475421
2.391590994 2.391590994 2.391590994
2.394025484 2.394025484 2.394025484
2.39126622 2.39126622 2.39126622
2.380688065 2.380688065 2.380688065
2.375607567 2.375607567 2.375607567
2.35339994 2.35339994 2.35339994
2.399894066 2.399894066 2.399894066
2.411045514 2.411045514 2.411045514
2.400383855 2.400383855 2.400383855
2.351252749 2.351252749 2.351252749
2.651488893 2.651488893 2.651488893
2.52776376 2.52776376 2.52776376
2.46697687 2.46697687 2.46697687
2.413015414 2.413015414 2.413015414
2.389097864 2.389097864 2.389097864
2.398888495 2.398888495 2.398888495
2.39357271 2.39357271 2.39357271
2.375703118 2.375703118 2.375703118
2.372130007 2.372130007 2.372130007
2.36714664 2.36714664 2.36714664
2.395277637 2.395277637 2.395277637
2.388483859 2.388483859 2.388483859
2.397606601 2.397606601 2.397606601
2.410225329 2.410225329 2.410225329
2.691070473 2.691070473 2.691070473
2.38920963 2.38920963 2.38920963
2.535224881 2.535224881 2.535224881
2.388865898 2.388865898 2.388865898
2.410451747 2.410451747 2.410451747
2.408283873 2.408283873 2.408283873
2.33491414 2.33491414 2.33491414
2.668185026 2.668185026 2.668185026
2.589672247 2.589672247 2.589672247
2.477636364 2.477636364 2.477636364
2.387332423 2.387332423 2.387332423
2.414097395 2.414097395 2.414097395
2.411779936 2.411779936 2.411779936
2.348365799 2.348365799 2.348365799
2.678053001 2.678053001 2.678053001
2.616865344 2.616865344 2.616865344
2.477753231 2.477753231 2.477753231
2.385737564 2.385737564 2.385737564
2.410248926 2.410248926 2.410248926
2.410166035 2.410166035 2.410166035
2.355468772 2.355468772 2.355468772
2.679415057 2.679415057 2.679415057
2.63144548 2.63144548 2.63144548
2.449770378 2.449770378 2.449770378
2.37334605 2.37334605 2.37334605
2.408563728 2.408563728 2.408563728
2.413559707 2.413559707 2.413559707
2.337839087 2.337839087 2.337839087
2.686145001 2.686145001 2.686145001
2.644543234 2.644543234 2.644543234
2.443907828 2.443907828 2.443907828
2.416701169 2.416701169 2.416701169
2.372371095 2.372371095 2.372371095
2.410559099 2.410559099 2.410559099
2.406717904 2.406717904 2.406717904
2.359240842 2.359240842 2.359240842
2.681205693 2.681205693 2.681205693
2.661403332 2.661403332 2.661403332
2.450961427 2.450961427 2.450961427
2.408900115 2.408900115 2.408900115
2.38058731 2.38058731 2.38058731
2.411756114 2.411756114 2.411756114
2.409264857 2.409264857 2.409264857
2.366275429 2.366275429 2.366275429
2.683187097 2.683187097 2.683187097
2.662478084 2.662478084 2.662478084
2.453641544 2.453641544 2.453641544
2.401803509 2.401803509 2.401803509
2.38029426 2.38029426 2.38029426
2.409134483 2.409134483 2.409134483
2.413960279 2.413960279 2.413960279
2.362054929 2.362054929 2.362054929
2.693701409 2.693701409 2.693701409
2.520808641 2.520808641 2.520808641
2.461363567 2.461363567 2.461363567
2.4033228 2.4033228 2.4033228
2.380722806 2.380722806 2.380722806
2.407197942 2.407197942 2.407197942
2.416417981 2.416417981 2.416417981
2.356963429 2.356963429 2.356963429
2.698735107 2.698735107 2.698735107
2.366219171 2.366219171 2.366219171
2.471983401 2.471983401 2.471983401
2.409555785 2.409555785 2.409555785
2.3818789 2.3818789 2.3818789
2.405194988 2.405194988 2.405194988
2.405573923 2.405573923 2.405573923
2.360674284 2.360674284 2.360674284
2.687273722 2.687273722 2.687273722
2.38911051 2.38911051 2.38911051
2.506731988 2.506731988 2.506731988
2.413387342 2.413387342 2.413387342
2.378320414 2.378320414 2.378320414
2.409961339 2.409961339 2.409961339
2.410114146 2.410114146 2.410114146
2.366780479 2.366780479 2.366780479
2.685915007 2.685915007 2.685915007
2.393804434 2.393804434 2.393804434
2.532079575 2.532079575 2.532079575
2.411617426 2.411617426 2.411617426
2.380935441 2.380935441 2.380935441
2.407082196 2.407082196 2.407082196
2.410917241 2.410917241 2.410917241
2.376918757 2.376918757 2.376918757
2.694733581 2.694733581 2.694733581
2.422116936 2.422116936 2.422116936
2.53323967 2.53323967 2.53323967
2.413781585 2.413781585 2.413781585
2.377256852 2.377256852 2.377256852
2.407186983 2.407186983 2.407186983
2.416861932 2.416861932 2.416861932
2.372441455 2.372441455 2.372441455
2.698010984 2.698010984 2.698010984
2.409219866 2.409219866 2.409219866
2.483464588 2.483464588 2.483464588
2.391281721 2.391281721 2.391281721
2.392368902 2.392368902 2.392368902
2.38900144 2.38900144 2.38900144
2.387376386 2.387376386 2.387376386
2.685941216 2.685941216 2.685941216
2.386281089 2.386281089 2.386281089
2.432220688 2.432220688 2.432220688
2.4172613 2.4172613 2.4172613
2.386787278 2.386787278 2.386787278
2.388821973 2.388821973 2.388821973
2.369037623 2.369037623 2.369037623
2.374937512 2.374937512 2.374937512
2.415646833 2.415646833 2.415646833
2.452867602 2.452867602 2.452867602
2.388265425 2.388265425 2.388265425
2.403776019 2.403776019 2.403776019
2.401607155 2.401607155 2.401607155
2.361229637 2.361229637 2.361229637
2.362626043 2.362626043 2.362626043
2.564452801 2.564452801 2.564452801
2.387152622 2.387152622 2.387152622
2.399538916 2.399538916 2.399538916
2.381608899 2.381608899 2.381608899
2.402439211 2.402439211 2.402439211
2.411847608 2.411847608 2.411847608
2.379271545 2.379271545 2.379271545
2.698760725 2.698760725 2.698760725
2.363384006 2.363384006 2.363384006
2.37494538 2.37494538 2.37494538
2.412465673 2.412465673 2.412465673
2.390086111 2.390086111 2.390086111
2.391235666 2.391235666 2.391235666
2.366749015 2.366749015 2.366749015
2.344502948 2.344502948 2.344502948
2.424738819 2.424738819 2.424738819
2.434240279 2.434240279 2.434240279
2.378323062 2.378323062 2.378323062
2.377853434 2.377853434 2.377853434
2.427129758 2.427129758 2.427129758
2.37569526 2.37569526 2.37569526
2.354020642 2.354020642 2.354020642
2.700187926 2.700187926 2.700187926
2.364379421 2.364379421 2.364379421
2.440957208 2.440957208 2.440957208
2.381653468 2.381653468 2.381653468
2.393230844 2.393230844 2.393230844
2.38231035 2.38231035 2.38231035
2.393700621 2.393700621 2.393700621
2.676276825 2.676276825 2.676276825
2.392439471 2.392439471 2.392439471
2.435541963 2.435541963 2.435541963
2.394248551 2.394248551 2.394248551
2.40222947 2.40222947 2.40222947
2.392755559 2.392755559 2.392755559
2.369224171 2.369224171 2.369224171
2.463297973 2.463297973 2.463297973
2.638279191 2.638279191 2.638279191
2.359171493 2.359171493 2.359171493
2.377760785 2.377760785 2.377760785
2.390464027 2.390464027 2.390464027
2.375963723 2.375963723 2.375963723
2.396413111 2.396413111 2.396413111
2.359006019 2.359006019 2.359006019
2.390391662 2.390391662 2.390391662
2.41624788 2.41624788 2.41624788
2.392051285 2.392051285 2.392051285
2.384085264 2.384085264 2.384085264
2.416299338 2.416299338 2.416299338
2.369172076 2.369172076 2.369172076
2.394818078 2.394818078 2.394818078
2.714840489 2.714840489 2.714840489
2.374846243 2.374846243 2.374846243
2.384959998 2.384959998 2.384959998
2.414675241 2.414675241 2.414675241
2.383224944 2.383224944 2.383224944
2.395669138 2.395669138 2.395669138
2.369340443 2.369340443 2.369340443
2.389367634 2.389367634 2.389367634
2.458645834 2.458645834 2.458645834
2.456117098 2.456117098 2.456117098
2.40824887 2.40824887 2.40824887
2.376974449 2.376974449 2.376974449
2.39875653 2.39875653 2.39875653
2.380302904 2.380302904 2.380302904
2.366156235 2.366156235 2.366156235
2.693616244 2.693616244 2.693616244
2.378329094 2.378329094 2.378329094
2.454159607 2.454159607 2.454159607
2.390498036 2.390498036 2.390498036
2.395408277 2.395408277 2.395408277
2.385943609 2.385943609 2.385943609
2.381105428 2.381105428 2.381105428
2.666528003 2.666528003 2.666528003
2.694076916 2.694076916 2.694076916
2.399281447 2.399281447 2.399281447
2.376639426 2.376639426 2.376639426
2.395190116 2.395190116 2.395190116
2.378360933 2.378360933 2.378360933
2.374966084 2.374966084 2.374966084
2.354814839 2.354814839 2.354814839
2.37624062 2.37624062 2.37624062
2.414402598 2.414402598 2.414402598
2.389603434 2.389603434 2.389603434
2.399185904 2.399185904 2.399185904
2.416591408 2.416591408 2.416591408
2.369946335 2.369946335 2.369946335
2.388572788 2.388572788 2.388572788
2.699463365 2.699463365 2.699463365
2.411460229 2.411460229 2.411460229
2.371844401 2.371844401 2.371844401
2.394376376 2.394376376 2.394376376
2.384944574 2.384944574 2.384944574
2.39912 2.39912 2.39912
2.357548686 2.357548686 2.357548686
2.653236169 2.653236169 2.653236169
2.55978417 2.55978417 2.55978417
2.388518308 2.388518308 2.388518308
2.397855821 2.397855821 2.397855821
2.373699845 2.373699845 2.373699845
2.398407652 2.398407652 2.398407652
2.38801628 2.38801628 2.38801628
2.369807906 2.369807906 2.369807906
2.673729671 2.673729671 2.673729671
2.394303502 2.394303502 2.394303502
2.446673162 2.446673162 2.446673162
2.390934993 2.390934993 2.390934993
2.413331121 2.413331121 2.413331121
2.39053311 2.39053311 2.39053311
2.357568279 2.357568279 2.357568279
2.657636383 2.657636383 2.657636383
2.674312578 2.674312578 2.674312578
2.42236997 2.42236997 2.42236997
2.380286293 2.380286293 2.380286293
2.390677024 2.390677024 2.390677024
2.386799272 2.386799272 2.386799272
2.368033792 2.368033792 2.368033792
2.368071545 2.368071545 2.368071545
2.405047942 2.405047942 2.405047942
2.425626882 2.425626882 2.425626882
2.388404199 2.388404199 2.388404199
2.390271533 2.390271533 2.390271533
2.410858891 2.410858891 2.410858891
2.372230479 2.372230479 2.372230479
2.376927795 2.376927795 2.376927795
2.6952084 2.6952084 2.6952084
2.399316193 2.399316193 2.399316193
2.375033267 2.375033267 2.375033267
2.407854803 2.407854803 2.407854803
2.395759985 2.395759985 2.395759985
2.386649497 2.386649497 2.386649497
2.374931753 2.374931753 2.374931753
2.686041294 2.686041294 2.686041294
2.343696823 2.343696823 2.343696823
2.363599434 2.363599434 2.363599434
2.405409104 2.405409104 2.405409104
2.377453414 2.377453414 2.377453414
2.407296021 2.407296021 2.407296021
2.393036933 2.393036933 2.393036933
2.3843962 2.3843962 2.3843962
2.686985531 2.686985531 2.686985531
2.395736046 2.395736046 2.395736046
2.404104168 2.404104168 2.404104168
2.402951443 2.402951443 2.402951443
2.407688536 2.407688536 2.407688536
2.380606589 2.380606589 2.380606589
2.359851085 2.359851085 2.359851085
2.369189589 2.369189589 2.369189589
2.407656315 2.407656315 2.407656315
2.47789967 2.47789967 2.47789967
2.373710151 2.373710151 2.373710151
2.390760018 2.390760018 2.390760018
2.386129948 2.386129948 2.386129948
2.369130151 2.369130151 2.369130151
2.349890135 2.349890135 2.349890135
2.453297045 2.453297045 2.453297045
2.423801821 2.423801821 2.423801821
2.391008065 2.391008065 2.391008065
2.383996959 2.383996959 2.383996959
2.406840957 2.406840957 2.406840957
2.381229008 2.381229008 2.381229008
2.357267961 2.357267961 2.357267961
2.693586781 2.693586781 2.693586781
2.404523644 2.404523644 2.404523644
2.433132345 2.433132345 2.433132345
2.39316747 2.39316747 2.39316747
2.410717237 2.410717237 2.410717237
2.388925039 2.388925039 2.388925039
2.371768062 2.371768062 2.371768062
2.361177485 2.361177485 2.361177485
2.389103153 2.389103153 2.389103153
2.410059137 2.410059137 2.410059137
2.380248118 2.380248118 2.380248118
2.392796073 2.392796073 2.392796073
2.380595997 2.380595997 2.380595997
2.368407733 2.368407733 2.368407733
2.337317005 2.337317005 2.337317005
2.462305735 2.462305735 2.462305735
2.429920192 2.429920192 2.429920192
2.403872863 2.403872863 2.403872863
2.368333835 2.368333835 2.368333835
2.399217203 2.399217203 2.399217203
2.387342042 2.387342042 2.387342042
2.400947647 2.400947647 2.400947647
2.337951761 2.337951761 2.337951761
2.367695558 2.367695558 2.367695558
2.389233772 2.389233772 2.389233772
2.390374163 2.390374163 2.390374163
2.381956367 2.381956367 2.381956367
2.415083496 2.415083496 2.415083496
2.387668543 2.387668543 2.387668543
2.366074105 2.366074105 2.366074105
2.69395852 2.69395852 2.69395852
2.427793242 2.427793242 2.427793242
2.491100274 2.491100274 2.491100274
2.392797863 2.392797863 2.392797863
2.407763337 2.407763337 2.407763337
2.388439758 2.388439758 2.388439758
2.366230929 2.366230929 2.366230929
2.379878026 2.379878026 2.379878026
2.408103293 2.408103293 2.408103293
2.371925407 2.371925407 2.371925407
2.413693102 2.413693102 2.413693102
2.396958848 2.396958848 2.396958848
2.393062932 2.393062932 2.393062932
2.36697246 2.36697246 2.36697246
2.693499809 2.693499809 2.693499809
2.346955986 2.346955986 2.346955986
2.416477121 2.416477121 2.416477121
2.406011919 2.406011919 2.406011919
2.3802904 2.3802904 2.3802904
2.380193735 2.380193735 2.380193735
2.388377462 2.388377462 2.388377462
2.393234367 2.393234367 2.393234367
2.340235433 2.340235433 2.340235433
2.387787021 2.387787021 2.387787021
2.409526124 2.409526124 2.409526124
2.394904397 2.394904397 2.394904397
2.401799711 2.401799711 2.401799711
2.389180432 2.389180432 2.389180432
2.371551436 2.371551436 2.371551436
2.349346307 2.349346307 2.349346307
2.401120615 2.401120615 2.401120615
2.360459016 2.360459016 2.360459016
2.382982694 2.382982694 2.382982694
2.405472191 2.405472191 2.405472191
2.382124924 2.382124924 2.382124924
2.372544159 2.372544159 2.372544159
2.375550882 2.375550882 2.375550882
2.397797489 2.397797489 2.397797489
2.343214385 2.343214385 2.343214385
2.390096709 2.390096709 2.390096709
2.398078919 2.398078919 2.398078919
2.398450615 2.398450615 2.398450615
2.381455887 2.381455887 2.381455887
2.329119821 2.329119821 2.329119821
2.40778231 2.40778231 2.40778231
2.366985919 2.366985919 2.366985919
2.374084452 2.374084452 2.374084452
2.390010176 2.390010176 2.390010176
2.394415896 2.394415896 2.394415896
2.375766436 2.375766436 2.375766436
2.382954488 2.382954488 2.382954488
2.355836556 2.355836556 2.355836556
2.370178856 2.370178856 2.370178856
2.392135212 2.392135212 2.392135212
2.385566325 2.385566325 2.385566325
2.408594843 2.408594843 2.408594843
2.393751722 2.393751722 2.393751722
2.382996129 2.382996129 2.382996129
2.693152233 2.693152233 2.693152233
2.378399023 2.378399023 2.378399023
2.377644528 2.377644528 2.377644528
2.420259328 2.420259328 2.420259328
2.385702462 2.385702462 2.385702462
2.384984981 2.384984981 2.384984981
2.374535905 2.374535905 2.374535905
2.694870848 2.694870848 2.694870848
2.349587737 2.349587737 2.349587737
2.489524355 2.489524355 2.489524355
2.390719076 2.390719076 2.390719076
2.368689535 2.368689535 2.368689535
2.403694893 2.403694893 2.403694893
2.384742364 2.384742364 2.384742364
2.399691898 2.399691898 2.399691898
2.35500193 2.35500193 2.35500193
2.44714482 2.44714482 2.44714482
2.44287742 2.44287742 2.44287742
2.39122583 2.39122583 2.39122583
2.401647499 2.401647499 2.401647499
2.389334899 2.389334899 2.389334899
2.370212317 2.370212317 2.370212317
2.359418711 2.359418711 2.359418711
2.453757175 2.453757175 2.453757175
2.370640499 2.370640499 2.370640499
2.370041978 2.370041978 2.370041978
2.395097324 2.395097324 2.395097324
2.393334435 2.393334435 2.393334435
2.379454038 2.379454038 2.379454038
2.361956099 2.361956099 2.361956099
2.36476141 2.36476141 2.36476141
2.377231841 2.377231841 2.377231841
2.395711524 2.395711524 2.395711524
2.393141418 2.393141418 2.393141418
2.387671496 2.387671496 2.387671496
2.385727203 2.385727203 2.385727203
2.380527875 2.380527875 2.380527875
2.487228205 2.487228205 2.487228205
2.359257417 2.359257417 2.359257417
2.401550369 2.401550369 2.401550369
2.379146389 2.379146389 2.379146389
2.409281908 2.409281908 2.409281908
2.400212414 2.400212414 2.400212414
2.409568858 2.409568858 2.409568858
2.342786141 2.342786141 2.342786141
2.514436281 2.514436281 2.514436281
2.419542435 2.419542435 2.419542435
2.405005058 2.405005058 2.405005058
2.38605501 2.38605501 2.38605501
2.403362333 2.403362333 2.403362333
2.379909875 2.379909875 2.379909875
2.359170057 2.359170057 2.359170057
2.329964823 2.329964823 2.329964823
2.355837456 2.355837456 2.355837456
2.389691427 2.389691427 2.389691427
2.378992375 2.378992375 2.378992375
2.398068197 2.398068197 2.398068197
2.379951385 2.379951385 2.379951385
2.385759379 2.385759379 2.385759379
2.374903791 2.374903791 2.374903791
2.388654108 2.388654108 2.388654108
2.405887542 2.405887542 2.405887542
2.375546646 2.375546646 2.375546646
2.398445861 2.398445861 2.398445861
2.390344523 2.390344523 2.390344523
2.372149255 2.372149255 2.372149255
2.364511088 2.364511088 2.364511088
2.36770078 2.36770078 2.36770078
2.441611548 2.441611548 2.441611548
2.402788254 2.402788254 2.402788254
2.386193383 2.386193383 2.386193383
2.393524937 2.393524937 2.393524937
2.383371966 2.383371966 2.383371966
2.376329838 2.376329838 2.376329838
2.3509737 2.3509737 2.3509737
2.371706214 2.371706214 2.371706214
2.410119971 2.410119971 2.410119971
2.405247077 2.405247077 2.405247077
2.387347377 2.387347377 2.387347377
2.390727712 2.390727712 2.390727712
2.38360254 2.38360254 2.38360254
2.357008225 2.357008225 2.357008225
2.342284933 2.342284933 2.342284933
2.367143124 2.367143124 2.367143124
2.414653281 2.414653281 2.414653281
2.40684876 2.40684876 2.40684876
2.389354732 2.389354732 2.389354732
2.393108976 2.393108976 2.393108976
2.381231499 2.381231499 2.381231499
2.36846644 2.36846644 2.36846644
2.357518436 2.357518436 2.357518436
2.363395461 2.363395461 2.363395461
2.428747199 2.428747199 2.428747199
2.369512252 2.369512252 2.369512252
2.383790994 2.383790994 2.383790994
2.390433949 2.390433949 2.390433949
2.383999042 2.383999042 2.383999042
2.359008309 2.359008309 2.359008309
2.354423426 2.354423426 2.354423426
2.475247385 2.475247385 2.475247385
2.422951528 2.422951528 2.422951528
2.377618245 2.377618245 2.377618245
2.381746223 2.381746223 2.381746223
2.387147562 2.387147562 2.387147562
2.382903692 2.382903692 2.382903692
2.362669427 2.362669427 2.362669427
2.358409804 2.358409804 2.358409804
2.484911214 2.484911214 2.484911214
2.404573717 2.404573717 2.404573717
2.361915736 2.361915736 2.361915736
2.396671446 2.396671446 2.396671446
2.404439485 2.404439485 2.404439485
2.395961099 2.395961099 2.395961099
2.347126012 2.347126012 2.347126012
2.365461224 2.365461224 2.365461224
2.370105944 2.370105944 2.370105944
2.377825655 2.377825655 2.377825655
2.377295417 2.377295417 2.377295417
2.410367922 2.410367922 2.410367922
2.38142579 2.38142579 2.38142579
2.382665049 2.382665049 2.382665049
2.367531735 2.367531735 2.367531735
2.435017826 2.435017826 2.435017826
2.358069788 2.358069788 2.358069788
2.399001745 2.399001745 2.399001745
2.385916414 2.385916414 2.385916414
2.402212207 2.402212207 2.402212207
2.385221705 2.385221705 2.385221705
2.380260544 2.380260544 2.380260544
2.395922005 2.395922005 2.395922005
2.398656357 2.398656357 2.398656357
2.372169759 2.372169759 2.372169759
2.407548841 2.407548841 2.407548841
2.408197358 2.408197358 2.408197358
2.389207611 2.389207611 2.389207611
2.384806305 2.384806305 2.384806305
2.379825167 2.379825167 2.379825167
2.390824988 2.390824988 2.390824988
2.362242537 2.362242537 2.362242537
2.374943294 2.374943294 2.374943294
2.41291509 2.41291509 2.41291509
2.377980315 2.377980315 2.377980315
2.379664018 2.379664018 2.379664018
2.393283917 2.393283917 2.393283917
2.382669446 2.382669446 2.382669446
2.357256524 2.357256524 2.357256524
2.336613847 2.336613847 2.336613847
2.362159272 2.362159272 2.362159272
2.411757699 2.411757699 2.411757699
2.369934997 2.369934997 2.369934997
2.379136803 2.379136803 2.379136803
2.39492959 2.39492959 2.39492959
2.394037417 2.394037417 2.394037417
2.353543315 2.353543315 2.353543315
2.334224236 2.334224236 2.334224236
2.366325977 2.366325977 2.366325977
2.386457732 2.386457732 2.386457732
2.373066098 2.373066098 2.373066098
2.395768262 2.395768262 2.395768262
2.394399506 2.394399506 2.394399506
2.385128208 2.385128208 2.385128208
2.362350723 2.362350723 2.362350723
2.364925181 2.364925181 2.364925181
2.423050626 2.423050626 2.423050626
2.380296304 2.380296304 2.380296304
2.389025797 2.389025797 2.389025797
2.421477131 2.421477131 2.421477131
2.375711893 2.375711893 2.375711893
2.390085928 2.390085928 2.390085928
2.360681051 2.360681051 2.360681051
2.526857398 2.526857398 2.526857398
2.387156148 2.387156148 2.387156148
2.392945972 2.392945972 2.392945972
2.384756973 2.384756973 2.384756973
2.410560414 2.410560414 2.410560414
2.392043581 2.392043581 2.392043581
2.388366187 2.388366187 2.388366187
2.386514152 2.386514152 2.386514152
2.360710879 2.360710879 2.360710879
2.380582158 2.380582158 2.380582158
2.398044783 2.398044783 2.398044783
2.401336682 2.401336682 2.401336682
2.386047653 2.386047653 2.386047653
2.398147154 2.398147154 2.398147154
2.386621661 2.386621661 2.386621661
2.387446765 2.387446765 2.387446765
2.361338323 2.361338323 2.361338323
2.358016989 2.358016989 2.358016989
2.415372065 2.415372065 2.415372065
2.367454917 2.367454917 2.367454917
2.391917656 2.391917656 2.391917656
2.393079311 2.393079311 2.393079311
2.387554354 2.387554354 2.387554354
2.369712037 2.369712037 2.369712037
2.379447883 2.379447883 2.379447883
2.346884093 2.346884093 2.346884093
2.390302604 2.390302604 2.390302604
2.370656985 2.370656985 2.370656985
2.394690772 2.394690772 2.394690772
2.39888712 2.39888712 2.39888712
2.385953377 2.385953377 2.385953377
2.348874989 2.348874989 2.348874989
2.364323437 2.364323437 2.364323437
2.49335591 2.49335591 2.49335591
2.391115431 2.391115431 2.391115431
2.381724234 2.381724234 2.381724234
2.403837231 2.403837231 2.403837231
2.377249087 2.377249087 2.377249087
2.383789485 2.383789485 2.383789485
2.342306749 2.342306749 2.342306749
2.385174669 2.385174669 2.385174669
2.377982127 2.377982127 2.377982127
2.395895031 2.395895031 2.395895031
2.388670439 2.388670439 2.388670439
2.404736136 2.404736136 2.404736136
2.385407136 2.385407136 2.385407136
2.387268957 2.387268957 2.387268957
2.374281221 2.374281221 2.374281221
2.385960821 2.385960821 2.385960821
2.35386565 2.35386565 2.35386565
2.39857447 2.39857447 2.39857447
2.400506715 2.400506715 2.400506715
2.382929901 2.382929901 2.382929901
2.384485067 2.384485067 2.384485067
2.388298233 2.388298233 2.388298233
2.377449448 2.377449448 2.377449448
2.376082461 2.376082461 2.376082461
2.356549436 2.356549436 2.356549436
2.412975489 2.412975489 2.412975489
2.369559113 2.369559113 2.369559113
2.382590262 2.382590262 2.382590262
2.388518744 2.388518744 2.388518744
2.374785574 2.374785574 2.374785574
2.35973037 2.35973037 2.35973037
2.359119447 2.359119447 2.359119447
2.370864078 2.370864078 2.370864078
2.390697614 2.390697614 2.390697614
2.371815788 2.371815788 2.371815788
2.390042753 2.390042753 2.390042753
2.3972905 2.3972905 2.3972905
2.399715038 2.399715038 2.399715038
2.358629596 2.358629596 2.358629596
2.340804483 2.340804483 2.340804483
2.361371357 2.361371357 2.361371357
2.404425713 2.404425713 2.404425713
2.384396091 2.384396091 2.384396091
2.381288118 2.381288118 2.381288118
2.398721648 2.398721648 2.398721648
2.380757676 2.380757676 2.380757676
2.375647065 2.375647065 2.375647065
2.372230989 2.372230989 2.372230989
2.364271144 2.364271144 2.364271144
2.386037296 2.386037296 2.386037296
2.394363796 2.394363796 2.394363796
2.397078351 2.397078351 2.397078351
2.384027099 2.384027099 2.384027099
2.382524169 2.382524169 2.382524169
2.3790907 2.3790907 2.3790907
2.386532159 2.386532159 2.386532159
2.346802455 2.346802455 2.346802455
2.363373808 2.363373808 2.363373808
2.384057018 2.384057018 2.384057018
2.36711023 2.36711023 2.36711023
2.397216934 2.397216934 2.397216934
2.407338307 2.407338307 2.407338307
2.390040755 2.390040755 2.390040755
2.372648156 2.372648156 2.372648156
2.352982167 2.352982167 2.352982167
2.384142557 2.384142557 2.384142557
2.389120956 2.389120956 2.389120956
2.384506675 2.384506675 2.384506675
2.407925721 2.407925721 2.407925721
2.373158146 2.373158146 2.373158146
2.372344471 2.372344471 2.372344471
2.379139043 2.379139043 2.379139043
2.366848753 2.366848753 2.366848753
2.370544674 2.370544674 2.370544674
2.401889314 2.401889314 2.401889314
2.40260378 2.40260378 2.40260378
2.369448309 2.369448309 2.369448309
2.380207369 2.380207369 2.380207369
2.387637899 2.387637899 2.387637899
2.395464096 2.395464096 2.395464096
2.376749646 2.376749646 2.376749646
2.342815386 2.342815386 2.342815386
2.356568502 2.356568502 2.356568502
2.406796775 2.406796775 2.406796775
2.381215435 2.381215435 2.381215435
2.387921791 2.387921791 2.387921791
2.403900246 2.403900246 2.403900246
2.380769272 2.380769272 2.380769272
2.381084354 2.381084354 2.381084354
