x	y	z
-13.57796379 -13.57796379 -13.57796379
-13.61137106 -13.61137106 -13.61137106
-13.58621923 -13.58621923 -13.58621923
-13.6053951 -13.6053951 -13.6053951
-13.66965485 -13.66965485 -13.66965485
-13.57614529 -13.57614529 -13.57614529
-13.59976566 -13.59976566 -13.59976566
-13.6299056 -13.6299056 -13.6299056
-13.55526323 -13.55526323 -13.55526323
-13.62493082 -13.62493082 -13.62493082
-13.60507829 -13.60507829 -13.60507829
-13.62621577 -13.62621577 -13.62621577
-13.60701619 -13.60701619 -13.60701619
-13.63374297 -13.63374297 -13.63374297
-13.59971638 -13.59971638 -13.59971638
-13.60011914 -13.60011914 -13.60011914
-13.50961389 -13.50961389 -13.50961389
-13.55098247 -13.55098247 -13.55098247
-13.58933237 -13.58933237 -13.58933237
-13.58169032 -13.58169032 -13.58169032
-13.50679997 -13.50679997 -13.50679997
-13.50681864 -13.50681864 -13.50681864
-13.57755807 -13.57755807 -13.57755807
-13.52611669 -13.52611669 -13.52611669
-13.51830069 -13.51830069 -13.51830069
-13.53289544 -13.53289544 -13.53289544
-13.52879502 -13.52879502 -13.52879502
-13.3970968 -13.3970968 -13.3970968
-13.66811841 -13.66811841 -13.66811841
-13.81454958 -13.81454958 -13.81454958
-13.80367433 -13.80367433 -13.80367433
-13.79992704 -13.79992704 -13.79992704
-13.7933783 -13.7933783 -13.7933783
-13.49111058 -13.49111058 -13.49111058
-13.7753302 -13.7753302 -13.7753302
-13.56713774 -13.56713774 -13.56713774
-13.80126824 -13.80126824 -13.80126824
-13.82162034 -13.82162034 -13.82162034
-13.80184712 -13.80184712 -13.80184712
-13.82961261 -13.82961261 -13.82961261
-12.96073287 -12.96073287 -12.96073287
-12.90597496 -12.90597496 -12.90597496
-13.80007502 -13.80007502 -13.80007502
-12.85839742 -12.85839742 -12.85839742
-13.79840467 -13.79840467 -13.79840467
-12.91591383 -12.91591383 -12.91591383
-12.92826203 -12.92826203 -12.92826203
-13.80662025 -13.80662025 -13.80662025
-12.91202065 -12.91202065 -12.91202065
-12.89759355 -12.89759355 -12.89759355
-13.81522485 -13.81522485 -13.81522485
-13.78825079 -13.78825079 -13.78825079
-13.79656049 -13.79656049 -13.79656049
-13.78019554 -13.78019554 -13.78019554
-13.81501951 -13.81501951 -13.81501951
-13.51564894 -13.51564894 -13.51564894
-13.82069272 -13.82069272 -13.82069272
-13.78815248 -13.78815248 -13.78815248
-13.80121998 -13.80121998 -13.80121998
-13.67884522 -13.67884522 -13.67884522
-12.93023358 -12.93023358 -12.93023358
-12.90761346 -12.90761346 -12.90761346
-12.92826214 -12.92826214 -12.92826214
-12.91955523 -12.91955523 -12.91955523
-12.93979983 -12.93979983 -12.93979983
-4.083463805 -4.083463805 -4.083463805
-3.957731937 -3.957731937 -3.957731937
-3.948710859 -3.948710859 -3.948710859
-5.105572534 -5.105572534 -5.105572534
-4.485107459 -4.485107459 -4.485107459
-5.099395713 -5.099395713 -5.099395713
-5.085536835 -5.085536835 -5.085536835
-5.092598476 -5.092598476 -5.092598476
-5.072001566 -5.072001566 -5.072001566
-5.009623046 -5.009623046 -5.009623046
-4.148035999 -4.148035999 -4.148035999
-4.978177374 -4.978177374 -4.978177374
-4.917453527 -4.917453527 -4.917453527
-4.85045849 -4.85045849 -4.85045849
-4.922817643 -4.922817643 -4.922817643
-4.787829966 -4.787829966 -4.787829966
-5.082017114 -5.082017114 -5.082017114
-5.114559816 -5.114559816 -5.114559816
-3.519582647 -3.519582647 -3.519582647
-4.681007755 -4.681007755 -4.681007755
-5.088708379 -5.088708379 -5.088708379
-4.939845257 -4.939845257 -4.939845257
-4.645543936 -4.645543936 -4.645543936
-5.096740792 -5.096740792 -5.096740792
-4.598880039 -4.598880039 -4.598880039
-5.093418053 -5.093418053 -5.093418053
-4.498351693 -4.498351693 -4.498351693
-3.970813874 -3.970813874 -3.970813874
-4.424249291 -4.424249291 -4.424249291
-3.969316744 -3.969316744 -3.969316744
-5.070744576 -5.070744576 -5.070744576
-3.564637415 -3.564637415 -3.564637415
-4.396740945 -4.396740945 -4.396740945
-4.994557414 -4.994557414 -4.994557414
-4.336300198 -4.336300198 -4.336300198
-4.936625459 -4.936625459 -4.936625459
-4.89662977 -4.89662977 -4.89662977
-3.555695309 -3.555695309 -3.555695309
-5.139523343 -5.139523343 -5.139523343
-4.234410586 -4.234410586 -4.234410586
-4.193563416 -4.193563416 -4.193563416
-4.202718149 -4.202718149 -4.202718149
-5.061215038 -5.061215038 -5.061215038
-4.164966864 -4.164966864 -4.164966864
-5.089604451 -5.089604451 -5.089604451
-4.71090294 -4.71090294 -4.71090294
-3.526649123 -3.526649123 -3.526649123
-4.638525697 -4.638525697 -4.638525697
-4.085897159 -4.085897159 -4.085897159
-4.627532502 -4.627532502 -4.627532502
-4.620822479 -4.620822479 -4.620822479
-4.043652707 -4.043652707 -4.043652707
-5.061525621 -5.061525621 -5.061525621
-4.00149766 -4.00149766 -4.00149766
-5.070118866 -5.070118866 -5.070118866
-3.951149677 -3.951149677 -3.951149677
-4.497284334 -4.497284334 -4.497284334
-3.971525016 -3.971525016 -3.971525016
-5.061597247 -5.061597247 -5.061597247
-4.438733371 -4.438733371 -4.438733371
-2.805804716 -2.805804716 -2.805804716
-4.52731918 -4.52731918 -4.52731918
-4.399135879 -4.399135879 -4.399135879
-3.892096481 -3.892096481 -3.892096481
-5.010700397 -5.010700397 -5.010700397
-4.340991637 -4.340991637 -4.340991637
-2.769673524 -2.769673524 -2.769673524
-4.613163095 -4.613163095 -4.613163095
-4.308552415 -4.308552415 -4.308552415
-2.611012201 -2.611012201 -2.611012201
-4.663871372 -4.663871372 -4.663871372
-3.797907228 -3.797907228 -3.797907228
-4.299561932 -4.299561932 -4.299561932
-3.747355689 -3.747355689 -3.747355689
-4.622320852 -4.622320852 -4.622320852
-3.76548143 -3.76548143 -3.76548143
-4.26733311 -4.26733311 -4.26733311
-4.781007493 -4.781007493 -4.781007493
-2.551821931 -2.551821931 -2.551821931
-3.708521835 -3.708521835 -3.708521835
-4.183379639 -4.183379639 -4.183379639
-4.717176581 -4.717176581 -4.717176581
-4.475943861 -4.475943861 -4.475943861
-5.100054683 -5.100054683 -5.100054683
-3.652100661 -3.652100661 -3.652100661
-3.257886665 -3.257886665 -3.257886665
-4.126773629 -4.126773629 -4.126773629
-4.651604648 -4.651604648 -4.651604648
-5.102836546 -5.102836546 -5.102836546
-3.26718308 -3.26718308 -3.26718308
-3.618998684 -3.618998684 -3.618998684
-4.051899725 -4.051899725 -4.051899725
-4.578542718 -4.578542718 -4.578542718
-5.070926861 -5.070926861 -5.070926861
-2.568460029 -2.568460029 -2.568460029
-4.55754036 -4.55754036 -4.55754036
-5.11202152 -5.11202152 -5.11202152
-3.529546983 -3.529546983 -3.529546983
-2.598761805 -2.598761805 -2.598761805
-4.053688684 -4.053688684 -4.053688684
-3.552235885 -3.552235885 -3.552235885
-3.963500448 -3.963500448 -3.963500448
-4.467962977 -4.467962977 -4.467962977
-3.651988831 -3.651988831 -3.651988831
-3.511680964 -3.511680964 -3.511680964
-3.928343326 -3.928343326 -3.928343326
-4.446165751 -4.446165751 -4.446165751
-5.05042884 -5.05042884 -5.05042884
-2.619956715 -2.619956715 -2.619956715
-2.589388894 -2.589388894 -2.589388894
-3.491027989 -3.491027989 -3.491027989
-3.859426399 -3.859426399 -3.859426399
-4.402548205 -4.402548205 -4.402548205
-3.601574605 -3.601574605 -3.601574605
-3.441880566 -3.441880566 -3.441880566
-3.854966645 -3.854966645 -3.854966645
-4.359106391 -4.359106391 -4.359106391
-4.967548078 -4.967548078 -4.967548078
-2.637287009 -2.637287009 -2.637287009
-3.165258336 -3.165258336 -3.165258336
-3.412833336 -3.412833336 -3.412833336
-3.790700266 -3.790700266 -3.790700266
-4.23648225 -4.23648225 -4.23648225
-2.816350506 -2.816350506 -2.816350506
-4.853814792 -4.853814792 -4.853814792
-3.37368611 -3.37368611 -3.37368611
-3.766007418 -3.766007418 -3.766007418
-3.437124712 -3.437124712 -3.437124712
-4.812069798 -4.812069798 -4.812069798
-3.328581091 -3.328581091 -3.328581091
-3.728302352 -3.728302352 -3.728302352
-3.258792849 -3.258792849 -3.258792849
-3.335904196 -3.335904196 -3.335904196
-3.687400892 -3.687400892 -3.687400892
-4.140767477 -4.140767477 -4.140767477
-4.195237055 -4.195237055 -4.195237055
-3.314285798 -3.314285798 -3.314285798
-3.664501404 -3.664501404 -3.664501404
-4.131023215 -4.131023215 -4.131023215
-4.686988418 -4.686988418 -4.686988418
-2.687861285 -2.687861285 -2.687861285
-4.646940512 -4.646940512 -4.646940512
-3.24963704 -3.24963704 -3.24963704
-3.613603066 -3.613603066 -3.613603066
-2.628098934 -2.628098934 -2.628098934
-3.7141282 -3.7141282 -3.7141282
-4.597889917 -4.597889917 -4.597889917
-3.216471645 -3.216471645 -3.216471645
-3.576077264 -3.576077264 -3.576077264
-2.586768073 -2.586768073 -2.586768073
-3.211778379 -3.211778379 -3.211778379
-3.578325636 -3.578325636 -3.578325636
-3.990311088 -3.990311088 -3.990311088
-4.530389966 -4.530389966 -4.530389966
-2.668918276 -2.668918276 -2.668918276
-2.581528573 -2.581528573 -2.581528573
-3.156772574 -3.156772574 -3.156772574
-3.509874384 -3.509874384 -3.509874384
-3.911326061 -3.911326061 -3.911326061
-3.314776044 -3.314776044 -3.314776044
-3.516621454 -3.516621454 -3.516621454
-3.946349191 -3.946349191 -3.946349191
-4.442305206 -4.442305206 -4.442305206
-3.137433284 -3.137433284 -3.137433284
-2.634016072 -2.634016072 -2.634016072
-3.114951429 -3.114951429 -3.114951429
-3.453785936 -3.453785936 -3.453785936
-3.9007057 -3.9007057 -3.9007057
-4.368603102 -4.368603102 -4.368603102
-2.662494023 -2.662494023 -2.662494023
-2.783423921 -2.783423921 -2.783423921
-3.092339437 -3.092339437 -3.092339437
-3.432412153 -3.432412153 -3.432412153
-3.873328291 -3.873328291 -3.873328291
-4.327614031 -4.327614031 -4.327614031
-2.659691249 -2.659691249 -2.659691249
-2.803894246 -2.803894246 -2.803894246
-3.072355569 -3.072355569 -3.072355569
-3.409258647 -3.409258647 -3.409258647
-3.797306446 -3.797306446 -3.797306446
-4.298847143 -4.298847143 -4.298847143
-2.667697744 -2.667697744 -2.667697744
-3.041896658 -3.041896658 -3.041896658
-3.359776578 -3.359776578 -3.359776578
-3.718516506 -3.718516506 -3.718516506
-3.022040093 -3.022040093 -3.022040093
-3.350497817 -3.350497817 -3.350497817
-3.733584754 -3.733584754 -3.733584754
-4.181459968 -4.181459968 -4.181459968
-2.678688772 -2.678688772 -2.678688772
-2.981105058 -2.981105058 -2.981105058
-3.292180946 -3.292180946 -3.292180946
-3.593180326 -3.593180326 -3.593180326
-3.31777893 -3.31777893 -3.31777893
-3.672741437 -3.672741437 -3.672741437
-4.111810037 -4.111810037 -4.111810037
-2.930426961 -2.930426961 -2.930426961
-2.67806902 -2.67806902 -2.67806902
-3.628674088 -3.628674088 -3.628674088
-4.094493927 -4.094493927 -4.094493927
-2.94275403 -2.94275403 -2.94275403
-3.237462516 -3.237462516 -3.237462516
-2.543318776 -2.543318776 -2.543318776
-3.216659431 -3.216659431 -3.216659431
-3.616939452 -3.616939452 -3.616939452
-4.025237878 -4.025237878 -4.025237878
-2.880847385 -2.880847385 -2.880847385
-2.676403004 -2.676403004 -2.676403004
-2.88305139 -2.88305139 -2.88305139
-3.182900994 -3.182900994 -3.182900994
-3.582085466 -3.582085466 -3.582085466
-3.994474267 -3.994474267 -3.994474267
-2.655050351 -2.655050351 -2.655050351
-2.711644895 -2.711644895 -2.711644895
-2.85985129 -2.85985129 -2.85985129
-3.159523554 -3.159523554 -3.159523554
-3.511909431 -3.511909431 -3.511909431
-3.885234782 -3.885234782 -3.885234782
-2.689000845 -2.689000845 -2.689000845
-2.7697995 -2.7697995 -2.7697995
-3.131767603 -3.131767603 -3.131767603
-3.475180616 -3.475180616 -3.475180616
-3.900227848 -3.900227848 -3.900227848
-2.584693688 -2.584693688 -2.584693688
-2.702416366 -2.702416366 -2.702416366
-3.493400353 -3.493400353 -3.493400353
-3.892837949 -3.892837949 -3.892837949
-2.778201389 -2.778201389 -2.778201389
-3.104509277 -3.104509277 -3.104509277
-2.680703033 -2.680703033 -2.680703033
-2.684426444 -2.684426444 -2.684426444
-3.081632456 -3.081632456 -3.081632456
-3.402155646 -3.402155646 -3.402155646
-3.833084853 -3.833084853 -3.833084853
-2.56793116 -2.56793116 -2.56793116
-2.711249845 -2.711249845 -2.711249845
-3.407272338 -3.407272338 -3.407272338
-3.80462426 -3.80462426 -3.80462426
-2.703849368 -2.703849368 -2.703849368
-3.35406245 -3.35406245 -3.35406245
-2.577274387 -2.577274387 -2.577274387
-3.032492449 -3.032492449 -3.032492449
-3.369091646 -3.369091646 -3.369091646
-3.737406241 -3.737406241 -3.737406241
-2.575495265 -2.575495265 -2.575495265
-2.98072086 -2.98072086 -2.98072086
-3.307275128 -3.307275128 -3.307275128
-3.637970684 -3.637970684 -3.637970684
-2.576807535 -2.576807535 -2.576807535
-2.981713989 -2.981713989 -2.981713989
-3.314393165 -3.314393165 -3.314393165
-3.665967859 -3.665967859 -3.665967859
-2.969157253 -2.969157253 -2.969157253
-3.25547562 -3.25547562 -3.25547562
-3.657584817 -3.657584817 -3.657584817
-2.570126527 -2.570126527 -2.570126527
-2.679593209 -2.679593209 -2.679593209
-2.704283996 -2.704283996 -2.704283996
-2.580427921 -2.580427921 -2.580427921
-2.924943302 -2.924943302 -2.924943302
-3.21126385 -3.21126385 -3.21126385
-3.606648257 -3.606648257 -3.606648257
-2.569329159 -2.569329159 -2.569329159
-2.727583104 -2.727583104 -2.727583104
-3.615107185 -3.615107185 -3.615107185
-2.561374479 -2.561374479 -2.561374479
-2.88783097 -2.88783097 -2.88783097
-3.189693725 -3.189693725 -3.189693725
-2.588226695 -2.588226695 -2.588226695
-3.176232974 -3.176232974 -3.176232974
-3.55515292 -3.55515292 -3.55515292
-2.55673267 -2.55673267 -2.55673267
-2.623556371 -2.623556371 -2.623556371
-2.695807758 -2.695807758 -2.695807758
-3.164017602 -3.164017602 -3.164017602
-3.523680776 -3.523680776 -3.523680776
-2.557742958 -2.557742958 -2.557742958
-2.577821955 -2.577821955 -2.577821955
-2.719421752 -2.719421752 -2.719421752
-2.786297899 -2.786297899 -2.786297899
-3.130761151 -3.130761151 -3.130761151
-3.492567892 -3.492567892 -3.492567892
-2.52405941 -2.52405941 -2.52405941
-2.608004777 -2.608004777 -2.608004777
-2.746149748 -2.746149748 -2.746149748
-2.691854238 -2.691854238 -2.691854238
-3.114045221 -3.114045221 -3.114045221
-3.454585848 -3.454585848 -3.454585848
-2.556358733 -2.556358733 -2.556358733
-2.698323776 -2.698323776 -2.698323776
-2.571078168 -2.571078168 -2.571078168
-2.662254283 -2.662254283 -2.662254283
-3.124568339 -3.124568339 -3.124568339
-2.572166481 -2.572166481 -2.572166481
-3.419014301 -3.419014301 -3.419014301
-2.556524069 -2.556524069 -2.556524069
-3.056633831 -3.056633831 -3.056633831
-3.395716153 -3.395716153 -3.395716153
-2.760952054 -2.760952054 -2.760952054
-2.568101408 -2.568101408 -2.568101408
-2.609766453 -2.609766453 -2.609766453
-2.569381498 -2.569381498 -2.569381498
-2.705452083 -2.705452083 -2.705452083
-2.76699212 -2.76699212 -2.76699212
-3.01641534 -3.01641534 -3.01641534
-2.562284067 -2.562284067 -2.562284067
-2.629922397 -2.629922397 -2.629922397
-2.745338191 -2.745338191 -2.745338191
-2.97376734 -2.97376734 -2.97376734
-3.306152045 -3.306152045 -3.306152045
-2.56108735 -2.56108735 -2.56108735
-2.614329742 -2.614329742 -2.614329742
-2.857348246 -2.857348246 -2.857348246
-2.576550009 -2.576550009 -2.576550009
-2.952397832 -2.952397832 -2.952397832
-3.268399143 -3.268399143 -3.268399143
-2.562999866 -2.562999866 -2.562999866
-2.586855634 -2.586855634 -2.586855634
-2.575253056 -2.575253056 -2.575253056
-2.916486679 -2.916486679 -2.916486679
-2.880404216 -2.880404216 -2.880404216
-2.581465358 -2.581465358 -2.581465358
-2.573672832 -2.573672832 -2.573672832
-2.568119025 -2.568119025 -2.568119025
-2.832389535 -2.832389535 -2.832389535
-2.574949301 -2.574949301 -2.574949301
-2.586682388 -2.586682388 -2.586682388
-2.547567186 -2.547567186 -2.547567186
-2.551205724 -2.551205724 -2.551205724
-2.727087316 -2.727087316 -2.727087316
-2.587900735 -2.587900735 -2.587900735
-2.834879824 -2.834879824 -2.834879824
-2.962871137 -2.962871137 -2.962871137
-2.667347577 -2.667347577 -2.667347577
-2.589879148 -2.589879148 -2.589879148
-2.56873676 -2.56873676 -2.56873676
-2.78842709 -2.78842709 -2.78842709
-2.730185165 -2.730185165 -2.730185165
-3.117140335 -3.117140335 -3.117140335
-2.554829784 -2.554829784 -2.554829784
-2.553378049 -2.553378049 -2.553378049
-2.574530948 -2.574530948 -2.574530948
-2.631336912 -2.631336912 -2.631336912
-2.571099089 -2.571099089 -2.571099089
-2.610599558 -2.610599558 -2.610599558
-2.572042299 -2.572042299 -2.572042299
-3.045306137 -3.045306137 -3.045306137
-2.578919729 -2.578919729 -2.578919729
-2.630348941 -2.630348941 -2.630348941
-2.573792963 -2.573792963 -2.573792963
-2.572955537 -2.572955537 -2.572955537
-3.028030991 -3.028030991 -3.028030991
-2.578268239 -2.578268239 -2.578268239
-2.617567674 -2.617567674 -2.617567674
-2.582697344 -2.582697344 -2.582697344
-2.604800071 -2.604800071 -2.604800071
-2.561034585 -2.561034585 -2.561034585
-2.580013446 -2.580013446 -2.580013446
-2.573603835 -2.573603835 -2.573603835
-2.589104468 -2.589104468 -2.589104468
-2.573286331 -2.573286331 -2.573286331
-2.940192447 -2.940192447 -2.940192447
-2.595157045 -2.595157045 -2.595157045
-2.939090818 -2.939090818 -2.939090818
-2.582994247 -2.582994247 -2.582994247
-2.582828455 -2.582828455 -2.582828455
-2.563922056 -2.563922056 -2.563922056
-2.58603788 -2.58603788 -2.58603788
-2.56655543 -2.56655543 -2.56655543
-2.870889835 -2.870889835 -2.870889835
-2.609491563 -2.609491563 -2.609491563
-2.584949341 -2.584949341 -2.584949341
-2.810165703 -2.810165703 -2.810165703
-2.617271438 -2.617271438 -2.617271438
-2.586989328 -2.586989328 -2.586989328
-2.755747556 -2.755747556 -2.755747556
-2.587806378 -2.587806378 -2.587806378
-2.577719093 -2.577719093 -2.577719093
-2.622979329 -2.622979329 -2.622979329
-2.576046187 -2.576046187 -2.576046187
-2.524812438 -2.524812438 -2.524812438
-2.595622108 -2.595622108 -2.595622108
-2.577291855 -2.577291855 -2.577291855
-2.596572698 -2.596572698 -2.596572698
-2.577827771 -2.577827771 -2.577827771
-2.581524338 -2.581524338 -2.581524338
-2.596083586 -2.596083586 -2.596083586
-2.606661051 -2.606661051 -2.606661051
-2.590768156 -2.590768156 -2.590768156
-2.592958716 -2.592958716 -2.592958716
-2.55899054 -2.55899054 -2.55899054
-2.582575169 -2.582575169 -2.582575169
-2.599915529 -2.599915529 -2.599915529
-2.573278018 -2.573278018 -2.573278018
-2.578955411 -2.578955411 -2.578955411
-2.570964922 -2.570964922 -2.570964922
-2.577851013 -2.577851013 -2.577851013
-2.587061756 -2.587061756 -2.587061756
-2.564853192 -2.564853192 -2.564853192
-2.605555457 -2.605555457 -2.605555457
-2.595395671 -2.595395671 -2.595395671
-2.580095193 -2.580095193 -2.580095193
-2.579128874 -2.579128874 -2.579128874
-2.586119046 -2.586119046 -2.586119046
-2.560881083 -2.560881083 -2.560881083
-2.598318018 -2.598318018 -2.598318018
-2.572038234 -2.572038234 -2.572038234
-2.592307913 -2.592307913 -2.592307913
-2.574066576 -2.574066576 -2.574066576
-2.516669973 -2.516669973 -2.516669973
-2.605568796 -2.605568796 -2.605568796
-2.572960812 -2.572960812 -2.572960812
-2.59198393 -2.59198393 -2.59198393
-2.584986405 -2.584986405 -2.584986405
-2.606280715 -2.606280715 -2.606280715
-2.593061083 -2.593061083 -2.593061083
-2.584849989 -2.584849989 -2.584849989
-3.013289081 -3.013289081 -3.013289081
-2.562682909 -2.562682909 -2.562682909
-2.580570484 -2.580570484 -2.580570484
-2.572612764 -2.572612764 -2.572612764
-2.59835552 -2.59835552 -2.59835552
-2.59025685 -2.59025685 -2.59025685
-2.578552566 -2.578552566 -2.578552566
-2.561405723 -2.561405723 -2.561405723
-3.288757862 -3.288757862 -3.288757862
-2.599894211 -2.599894211 -2.599894211
-2.570764558 -2.570764558 -2.570764558
-2.567130641 -2.567130641 -2.567130641
-2.603280953 -2.603280953 -2.603280953
-2.595531905 -2.595531905 -2.595531905
-2.578197834 -2.578197834 -2.578197834
-2.56715039 -2.56715039 -2.56715039
-2.573931595 -2.573931595 -2.573931595
-2.58744498 -2.58744498 -2.58744498
-2.568700279 -2.568700279 -2.568700279
-2.545297631 -2.545297631 -2.545297631
-2.586170196 -2.586170196 -2.586170196
-3.42734874 -3.42734874 -3.42734874
-2.602619499 -2.602619499 -2.602619499
-2.592209484 -2.592209484 -2.592209484
-2.566843419 -2.566843419 -2.566843419
-2.58829624 -2.58829624 -2.58829624
-2.553418778 -2.553418778 -2.553418778
-2.564422867 -2.564422867 -2.564422867
-2.607763576 -2.607763576 -2.607763576
-2.583054268 -2.583054268 -2.583054268
-2.570407058 -2.570407058 -2.570407058
-2.575218425 -2.575218425 -2.575218425
-2.577999411 -2.577999411 -2.577999411
-3.438739312 -3.438739312 -3.438739312
-2.608697501 -2.608697501 -2.608697501
-2.59113656 -2.59113656 -2.59113656
-2.558726674 -2.558726674 -2.558726674
-2.591190779 -2.591190779 -2.591190779
-2.546018634 -2.546018634 -2.546018634
-2.590943119 -2.590943119 -2.590943119
-2.603855559 -2.603855559 -2.603855559
-2.589040179 -2.589040179 -2.589040179
-3.408797908 -3.408797908 -3.408797908
-2.588269763 -2.588269763 -2.588269763
-2.583066673 -2.583066673 -2.583066673
-3.401842037 -3.401842037 -3.401842037
-2.599323497 -2.599323497 -2.599323497
-2.590193711 -2.590193711 -2.590193711
-2.537322298 -2.537322298 -2.537322298
-2.587208779 -2.587208779 -2.587208779
-2.582545261 -2.582545261 -2.582545261
-2.903387136 -2.903387136 -2.903387136
-2.594704262 -2.594704262 -2.594704262
-2.59912349 -2.59912349 -2.59912349
-2.541754368 -2.541754368 -2.541754368
-2.595940673 -2.595940673 -2.595940673
-2.573050017 -2.573050017 -2.573050017
-2.602263963 -2.602263963 -2.602263963
-2.599314502 -2.599314502 -2.599314502
-2.569137669 -2.569137669 -2.569137669
-2.60016059 -2.60016059 -2.60016059
-2.58269524 -2.58269524 -2.58269524
-2.566738513 -2.566738513 -2.566738513
-2.595544661 -2.595544661 -2.595544661
-2.596895123 -2.596895123 -2.596895123
-2.583153891 -2.583153891 -2.583153891
-2.79913829 -2.79913829 -2.79913829
-2.607913773 -2.607913773 -2.607913773
-2.591751809 -2.591751809 -2.591751809
-2.616821594 -2.616821594 -2.616821594
-2.59065819 -2.59065819 -2.59065819
-3.421590703 -3.421590703 -3.421590703
-2.595376462 -2.595376462 -2.595376462
-2.575434282 -2.575434282 -2.575434282
-2.590306886 -2.590306886 -2.590306886
-2.608556642 -2.608556642 -2.608556642
-2.583650135 -2.583650135 -2.583650135
-2.598527523 -2.598527523 -2.598527523
-2.602957609 -2.602957609 -2.602957609
-2.611475474 -2.611475474 -2.611475474
-2.600372069 -2.600372069 -2.600372069
-2.599293664 -2.599293664 -2.599293664
-2.604678852 -2.604678852 -2.604678852
-2.609137683 -2.609137683 -2.609137683
-2.591755814 -2.591755814 -2.591755814
-2.594105573 -2.594105573 -2.594105573
-2.605413429 -2.605413429 -2.605413429
-2.562524582 -2.562524582 -2.562524582
-2.611867601 -2.611867601 -2.611867601
-2.586608878 -2.586608878 -2.586608878
-2.863595987 -2.863595987 -2.863595987
-2.610974573 -2.610974573 -2.610974573
-2.594311596 -2.594311596 -2.594311596
-2.962936827 -2.962936827 -2.962936827
-2.608671893 -2.608671893 -2.608671893
-2.589684584 -2.589684584 -2.589684584
-2.559793773 -2.559793773 -2.559793773
-2.605302574 -2.605302574 -2.605302574
-2.61744069 -2.61744069 -2.61744069
-2.573865818 -2.573865818 -2.573865818
-2.619537812 -2.619537812 -2.619537812
-2.598800905 -2.598800905 -2.598800905
-2.696538873 -2.696538873 -2.696538873
-2.604569438 -2.604569438 -2.604569438
-2.581518844 -2.581518844 -2.581518844
-3.372018655 -3.372018655 -3.372018655
-2.623047355 -2.623047355 -2.623047355
-2.597789769 -2.597789769 -2.597789769
-2.592098288 -2.592098288 -2.592098288
-3.034462243 -3.034462243 -3.034462243
-2.62551621 -2.62551621 -2.62551621
-2.601994301 -2.601994301 -2.601994301
-2.709179418 -2.709179418 -2.709179418
-2.616931158 -2.616931158 -2.616931158
-2.595206197 -2.595206197 -2.595206197
-2.572723055 -2.572723055 -2.572723055
-3.022893937 -3.022893937 -3.022893937
-2.609674106 -2.609674106 -2.609674106
-2.607217401 -2.607217401 -2.607217401
-2.714189107 -2.714189107 -2.714189107
-2.624397533 -2.624397533 -2.624397533
-2.616086252 -2.616086252 -2.616086252
-2.571797849 -2.571797849 -2.571797849
-2.950475688 -2.950475688 -2.950475688
-2.616658142 -2.616658142 -2.616658142
-2.599726442 -2.599726442 -2.599726442
-2.707732694 -2.707732694 -2.707732694
-2.622974702 -2.622974702 -2.622974702
-2.607400443 -2.607400443 -2.607400443
-2.57533834 -2.57533834 -2.57533834
-2.70406201 -2.70406201 -2.70406201
-2.615530387 -2.615530387 -2.615530387
-2.592066035 -2.592066035 -2.592066035
-2.557059549 -2.557059549 -2.557059549
-2.614361465 -2.614361465 -2.614361465
-2.594086774 -2.594086774 -2.594086774
-2.594210778 -2.594210778 -2.594210778
-2.556656566 -2.556656566 -2.556656566
-2.605136112 -2.605136112 -2.605136112
-2.575866926 -2.575866926 -2.575866926
-2.570000154 -2.570000154 -2.570000154
-3.269338617 -3.269338617 -3.269338617
-2.610754545 -2.610754545 -2.610754545
-2.589257735 -2.589257735 -2.589257735
-2.576104034 -2.576104034 -2.576104034
-2.570386949 -2.570386949 -2.570386949
-2.558302626 -2.558302626 -2.558302626
-3.363363892 -3.363363892 -3.363363892
-2.609753559 -2.609753559 -2.609753559
-2.578845949 -2.578845949 -2.578845949
-2.575392814 -2.575392814 -2.575392814
-2.585755798 -2.585755798 -2.585755798
-2.565351342 -2.565351342 -2.565351342
-2.624979244 -2.624979244 -2.624979244
-2.595923927 -2.595923927 -2.595923927
-2.579130344 -2.579130344 -2.579130344
-2.590177615 -2.590177615 -2.590177615
-2.573132788 -2.573132788 -2.573132788
-2.616636868 -2.616636868 -2.616636868
-2.616019914 -2.616019914 -2.616019914
-2.600029728 -2.600029728 -2.600029728
-2.595196504 -2.595196504 -2.595196504
-2.568225146 -2.568225146 -2.568225146
-2.560134684 -2.560134684 -2.560134684
-2.595956787 -2.595956787 -2.595956787
-2.614492621 -2.614492621 -2.614492621
-2.602979376 -2.602979376 -2.602979376
-2.587398043 -2.587398043 -2.587398043
-2.575741215 -2.575741215 -2.575741215
-2.610499537 -2.610499537 -2.610499537
-3.418338562 -3.418338562 -3.418338562
-2.602188657 -2.602188657 -2.602188657
-2.596638616 -2.596638616 -2.596638616
-2.574854139 -2.574854139 -2.574854139
-2.585930729 -2.585930729 -2.585930729
-2.574599175 -2.574599175 -2.574599175
-3.440673536 -3.440673536 -3.440673536
-2.610448648 -2.610448648 -2.610448648
-2.5821805 -2.5821805 -2.5821805
-2.581962683 -2.581962683 -2.581962683
-2.579981916 -2.579981916 -2.579981916
-2.617032206 -2.617032206 -2.617032206
-2.62605058 -2.62605058 -2.62605058
-2.602047879 -2.602047879 -2.602047879
-2.578317431 -2.578317431 -2.578317431
-2.577751035 -2.577751035 -2.577751035
-2.574389392 -2.574389392 -2.574389392
-2.657134609 -2.657134609 -2.657134609
-2.622565102 -2.622565102 -2.622565102
-2.595461343 -2.595461343 -2.595461343
-2.573861865 -2.573861865 -2.573861865
-2.562615637 -2.562615637 -2.562615637
-2.562921344 -2.562921344 -2.562921344
-2.592802886 -2.592802886 -2.592802886
-2.612965287 -2.612965287 -2.612965287
-2.6052322 -2.6052322 -2.6052322
-2.592305256 -2.592305256 -2.592305256
-2.574190338 -2.574190338 -2.574190338
-2.567853521 -2.567853521 -2.567853521
-3.397456304 -3.397456304 -3.397456304
-2.611599351 -2.611599351 -2.611599351
-2.602135058 -2.602135058 -2.602135058
-2.575045887 -2.575045887 -2.575045887
-2.579182827 -2.579182827 -2.579182827
-2.579809664 -2.579809664 -2.579809664
-3.424067376 -3.424067376 -3.424067376
-2.613571744 -2.613571744 -2.613571744
-2.593305053 -2.593305053 -2.593305053
-2.57716501 -2.57716501 -2.57716501
-2.585550095 -2.585550095 -2.585550095
-2.583587162 -2.583587162 -2.583587162
-2.625368663 -2.625368663 -2.625368663
-2.604308351 -2.604308351 -2.604308351
-2.586574447 -2.586574447 -2.586574447
-2.577503173 -2.577503173 -2.577503173
-2.577465711 -2.577465711 -2.577465711
-2.563959275 -2.563959275 -2.563959275
-2.618881661 -2.618881661 -2.618881661
-2.602146512 -2.602146512 -2.602146512
-2.587117782 -2.587117782 -2.587117782
-2.580779938 -2.580779938 -2.580779938
-2.553112068 -2.553112068 -2.553112068
-2.591328583 -2.591328583 -2.591328583
-2.618796403 -2.618796403 -2.618796403
-2.597723017 -2.597723017 -2.597723017
-2.594648664 -2.594648664 -2.594648664
-2.575018044 -2.575018044 -2.575018044
-2.631510454 -2.631510454 -2.631510454
-2.595390508 -2.595390508 -2.595390508
-2.575101075 -2.575101075 -2.575101075
-2.963141275 -2.963141275 -2.963141275
-2.629555391 -2.629555391 -2.629555391
-2.591513765 -2.591513765 -2.591513765
-2.574197696 -2.574197696 -2.574197696
-2.557103342 -2.557103342 -2.557103342
-2.612516383 -2.612516383 -2.612516383
-2.599001694 -2.599001694 -2.599001694
-2.587984331 -2.587984331 -2.587984331
-3.281418786 -3.281418786 -3.281418786
-2.613462212 -2.613462212 -2.613462212
-2.579002932 -2.579002932 -2.579002932
-2.575866289 -2.575866289 -2.575866289
-3.289398068 -3.289398068 -3.289398068
-2.612669245 -2.612669245 -2.612669245
-2.58704887 -2.58704887 -2.58704887
-2.580597557 -2.580597557 -2.580597557
-2.651449139 -2.651449139 -2.651449139
-3.29880466 -3.29880466 -3.29880466
-2.619031332 -2.619031332 -2.619031332
-2.589073917 -2.589073917 -2.589073917
-2.585596062 -2.585596062 -2.585596062
-2.631736898 -2.631736898 -2.631736898
-3.412096032 -3.412096032 -3.412096032
-2.6075199 -2.6075199 -2.6075199
-2.59224468 -2.59224468 -2.59224468
-2.701348905 -2.701348905 -2.701348905
-3.381179954 -3.381179954 -3.381179954
-2.604477775 -2.604477775 -2.604477775
-2.584940624 -2.584940624 -2.584940624
-2.617622387 -2.617622387 -2.617622387
-2.61498876 -2.61498876 -2.61498876
-2.60072497 -2.60072497 -2.60072497
-2.587474175 -2.587474175 -2.587474175
-3.400001889 -3.400001889 -3.400001889
-2.613392624 -2.613392624 -2.613392624
-2.608110541 -2.608110541 -2.608110541
-2.583767934 -2.583767934 -2.583767934
-2.597632898 -2.597632898 -2.597632898
-2.617809159 -2.617809159 -2.617809159
-2.600944439 -2.600944439 -2.600944439
-2.609217364 -2.609217364 -2.609217364
-2.616921775 -2.616921775 -2.616921775
-2.597954163 -2.597954163 -2.597954163
-2.591349351 -2.591349351 -2.591349351
-2.686383507 -2.686383507 -2.686383507
-2.945860397 -2.945860397 -2.945860397
-2.607855722 -2.607855722 -2.607855722
-2.626464235 -2.626464235 -2.626464235
-2.581413402 -2.581413402 -2.581413402
-2.582325487 -2.582325487 -2.582325487
-2.622228563 -2.622228563 -2.622228563
-2.613598187 -2.613598187 -2.613598187
-2.594524239 -2.594524239 -2.594524239
-2.582332902 -2.582332902 -2.582332902
-3.34337554 -3.34337554 -3.34337554
-2.622786455 -2.622786455 -2.622786455
-2.606163003 -2.606163003 -2.606163003
-2.603010744 -2.603010744 -2.603010744
-2.553176835 -2.553176835 -2.553176835
-2.62149647 -2.62149647 -2.62149647
-2.603548875 -2.603548875 -2.603548875
-2.60154617 -2.60154617 -2.60154617
-2.581800649 -2.581800649 -2.581800649
-2.579339572 -2.579339572 -2.579339572
-2.630600808 -2.630600808 -2.630600808
-2.587861326 -2.587861326 -2.587861326
-2.579538935 -2.579538935 -2.579538935
-2.591430472 -2.591430472 -2.591430472
-3.428250613 -3.428250613 -3.428250613
-2.611919839 -2.611919839 -2.611919839
-2.584236308 -2.584236308 -2.584236308
-2.599837521 -2.599837521 -2.599837521
-2.626900016 -2.626900016 -2.626900016
-2.873754255 -2.873754255 -2.873754255
-2.633249159 -2.633249159 -2.633249159
-2.606525412 -2.606525412 -2.606525412
-2.593936424 -2.593936424 -2.593936424
-2.583865762 -2.583865762 -2.583865762
-2.674175657 -2.674175657 -2.674175657
-2.617105017 -2.617105017 -2.617105017
-2.61358783 -2.61358783 -2.61358783
-2.602128286 -2.602128286 -2.602128286
-2.582346058 -2.582346058 -2.582346058
-2.610463792 -2.610463792 -2.610463792
-2.608436915 -2.608436915 -2.608436915
-2.620616922 -2.620616922 -2.620616922
-2.57643582 -2.57643582 -2.57643582
-2.592064261 -2.592064261 -2.592064261
-2.520400556 -2.520400556 -2.520400556
-2.632115932 -2.632115932 -2.632115932
-2.601147251 -2.601147251 -2.601147251
-2.591373888 -2.591373888 -2.591373888
-2.590944742 -2.590944742 -2.590944742
-2.513600843 -2.513600843 -2.513600843
-2.62796052 -2.62796052 -2.62796052
-2.599371654 -2.599371654 -2.599371654
-2.596151082 -2.596151082 -2.596151082
-2.590218328 -2.590218328 -2.590218328
-2.793448134 -2.793448134 -2.793448134
-2.59310701 -2.59310701 -2.59310701
-2.598997987 -2.598997987 -2.598997987
-2.600021882 -2.600021882 -2.600021882
-2.672486201 -2.672486201 -2.672486201
-2.630186021 -2.630186021 -2.630186021
-2.607486839 -2.607486839 -2.607486839
-2.579088877 -2.579088877 -2.579088877
-2.591514271 -2.591514271 -2.591514271
-2.49842696 -2.49842696 -2.49842696
-2.626918396 -2.626918396 -2.626918396
-2.604513716 -2.604513716 -2.604513716
-2.579875805 -2.579875805 -2.579875805
-2.589801817 -2.589801817 -2.589801817
-2.834055447 -2.834055447 -2.834055447
-2.627628222 -2.627628222 -2.627628222
-2.62129805 -2.62129805 -2.62129805
-2.597630097 -2.597630097 -2.597630097
-2.596800556 -2.596800556 -2.596800556
-3.390304041 -3.390304041 -3.390304041
-2.629343313 -2.629343313 -2.629343313
-2.613815831 -2.613815831 -2.613815831
-2.596429336 -2.596429336 -2.596429336
-2.596455488 -2.596455488 -2.596455488
-3.38622422 -3.38622422 -3.38622422
-2.628467196 -2.628467196 -2.628467196
-2.617449616 -2.617449616 -2.617449616
-2.598600791 -2.598600791 -2.598600791
-2.589586163 -2.589586163 -2.589586163
-2.465760343 -2.465760343 -2.465760343
-2.635815363 -2.635815363 -2.635815363
-2.615296042 -2.615296042 -2.615296042
-2.602224259 -2.602224259 -2.602224259
-2.594777113 -2.594777113 -2.594777113
-2.573161867 -2.573161867 -2.573161867
-2.617270293 -2.617270293 -2.617270293
-2.592643951 -2.592643951 -2.592643951
-2.589199007 -2.589199007 -2.589199007
-2.672465527 -2.672465527 -2.672465527
-2.653890569 -2.653890569 -2.653890569
-2.602416911 -2.602416911 -2.602416911
-2.597187077 -2.597187077 -2.597187077
-2.594726556 -2.594726556 -2.594726556
-2.593682024 -2.593682024 -2.593682024
-3.380682813 -3.380682813 -3.380682813
-2.624077159 -2.624077159 -2.624077159
-2.603073331 -2.603073331 -2.603073331
-2.590766481 -2.590766481 -2.590766481
-2.587350067 -2.587350067 -2.587350067
-3.412581611 -3.412581611 -3.412581611
-2.623367283 -2.623367283 -2.623367283
-2.598519646 -2.598519646 -2.598519646
-2.59050755 -2.59050755 -2.59050755
-2.59439988 -2.59439988 -2.59439988
-2.599017082 -2.599017082 -2.599017082
-2.631385893 -2.631385893 -2.631385893
-2.611844638 -2.611844638 -2.611844638
-2.602861892 -2.602861892 -2.602861892
-2.596962005 -2.596962005 -2.596962005
-2.604637981 -2.604637981 -2.604637981
-3.401860211 -3.401860211 -3.401860211
-2.617429696 -2.617429696 -2.617429696
-2.608447255 -2.608447255 -2.608447255
-2.589085375 -2.589085375 -2.589085375
-2.596914172 -2.596914172 -2.596914172
-2.584528315 -2.584528315 -2.584528315
-2.635777943 -2.635777943 -2.635777943
-2.608340811 -2.608340811 -2.608340811
-2.609418992 -2.609418992 -2.609418992
-2.589583737 -2.589583737 -2.589583737
-2.580080279 -2.580080279 -2.580080279
-3.239541974 -3.239541974 -3.239541974
-2.617984349 -2.617984349 -2.617984349
-2.610464724 -2.610464724 -2.610464724
-2.597148643 -2.597148643 -2.597148643
-2.593940866 -2.593940866 -2.593940866
-2.582454764 -2.582454764 -2.582454764
-2.631525674 -2.631525674 -2.631525674
-2.619248281 -2.619248281 -2.619248281
-2.58726958 -2.58726958 -2.58726958
-2.583827778 -2.583827778 -2.583827778
-2.585940273 -2.585940273 -2.585940273
-3.457422115 -3.457422115 -3.457422115
-2.627554177 -2.627554177 -2.627554177
-2.590512835 -2.590512835 -2.590512835
-2.595877401 -2.595877401 -2.595877401
-2.593827738 -2.593827738 -2.593827738
-2.760016521 -2.760016521 -2.760016521
-2.621892588 -2.621892588 -2.621892588
-2.621573539 -2.621573539 -2.621573539
-2.589428267 -2.589428267 -2.589428267
-2.592358199 -2.592358199 -2.592358199
-2.592634933 -2.592634933 -2.592634933
-3.448176483 -3.448176483 -3.448176483
-2.631169661 -2.631169661 -2.631169661
-2.612827881 -2.612827881 -2.612827881
-2.590163173 -2.590163173 -2.590163173
-2.593127572 -2.593127572 -2.593127572
-2.573227001 -2.573227001 -2.573227001
-2.625460249 -2.625460249 -2.625460249
-2.620644915 -2.620644915 -2.620644915
-2.608687324 -2.608687324 -2.608687324
-2.595618168 -2.595618168 -2.595618168
-2.591228098 -2.591228098 -2.591228098
-3.073261832 -3.073261832 -3.073261832
-2.610827182 -2.610827182 -2.610827182
-2.610492529 -2.610492529 -2.610492529
-2.595518497 -2.595518497 -2.595518497
-2.586356095 -2.586356095 -2.586356095
-2.611924345 -2.611924345 -2.611924345
-2.598319221 -2.598319221 -2.598319221
-2.590166473 -2.590166473 -2.590166473
-2.587266486 -2.587266486 -2.587266486
-2.683346294 -2.683346294 -2.683346294
-2.620229957 -2.620229957 -2.620229957
-2.635952184 -2.635952184 -2.635952184
-2.606419731 -2.606419731 -2.606419731
-2.60289108 -2.60289108 -2.60289108
-2.575234728 -2.575234728 -2.575234728
-3.457216798 -3.457216798 -3.457216798
-2.624562404 -2.624562404 -2.624562404
-2.59689506 -2.59689506 -2.59689506
-2.597369288 -2.597369288 -2.597369288
-2.610503078 -2.610503078 -2.610503078
-2.567502012 -2.567502012 -2.567502012
-2.625122432 -2.625122432 -2.625122432
-2.609711488 -2.609711488 -2.609711488
-2.595600734 -2.595600734 -2.595600734
-2.579524868 -2.579524868 -2.579524868
-2.982873906 -2.982873906 -2.982873906
-2.604002973 -2.604002973 -2.604002973
-2.601724508 -2.601724508 -2.601724508
-2.600634807 -2.600634807 -2.600634807
-2.577897006 -2.577897006 -2.577897006
-3.123254837 -3.123254837 -3.123254837
-2.617423688 -2.617423688 -2.617423688
-2.615914134 -2.615914134 -2.615914134
-2.607196031 -2.607196031 -2.607196031
-2.619950419 -2.619950419 -2.619950419
-2.60902368 -2.60902368 -2.60902368
-2.634937201 -2.634937201 -2.634937201
-2.623996773 -2.623996773 -2.623996773
-2.599021449 -2.599021449 -2.599021449
-2.592275454 -2.592275454 -2.592275454
-2.581973241 -2.581973241 -2.581973241
-3.446391121 -3.446391121 -3.446391121
-2.626216199 -2.626216199 -2.626216199
-2.61891998 -2.61891998 -2.61891998
-2.604542776 -2.604542776 -2.604542776
-2.643738689 -2.643738689 -2.643738689
-2.610783615 -2.610783615 -2.610783615
-2.617242181 -2.617242181 -2.617242181
-2.604996299 -2.604996299 -2.604996299
-2.611806822 -2.611806822 -2.611806822
-3.407976021 -3.407976021 -3.407976021
-2.633263456 -2.633263456 -2.633263456
-2.623519569 -2.623519569 -2.623519569
-2.598011585 -2.598011585 -2.598011585
-2.647882111 -2.647882111 -2.647882111
-2.616092203 -2.616092203 -2.616092203
-2.615299472 -2.615299472 -2.615299472
-2.588905148 -2.588905148 -2.588905148
-2.574477625 -2.574477625 -2.574477625
-2.623581816 -2.623581816 -2.623581816
-2.603905802 -2.603905802 -2.603905802
-2.614007609 -2.614007609 -2.614007609
-2.994916672 -2.994916672 -2.994916672
-2.644372995 -2.644372995 -2.644372995
-2.628034946 -2.628034946 -2.628034946
-2.604556676 -2.604556676 -2.604556676
-2.600040576 -2.600040576 -2.600040576
-2.806470857 -2.806470857 -2.806470857
-2.620547123 -2.620547123 -2.620547123
-2.606099967 -2.606099967 -2.606099967
-2.589357363 -2.589357363 -2.589357363
-2.568972642 -2.568972642 -2.568972642
-2.62790184 -2.62790184 -2.62790184
-2.620581379 -2.620581379 -2.620581379
-2.61178771 -2.61178771 -2.61178771
-2.597654927 -2.597654927 -2.597654927
-2.734004584 -2.734004584 -2.734004584
-2.619218946 -2.619218946 -2.619218946
-2.617538386 -2.617538386 -2.617538386
-2.596986614 -2.596986614 -2.596986614
-2.507037937 -2.507037937 -2.507037937
-2.624755812 -2.624755812 -2.624755812
-2.618783948 -2.618783948 -2.618783948
-2.604631575 -2.604631575 -2.604631575
-2.645984942 -2.645984942 -2.645984942
-2.619126601 -2.619126601 -2.619126601
-2.615531765 -2.615531765 -2.615531765
-2.592143396 -2.592143396 -2.592143396
-2.666540976 -2.666540976 -2.666540976
-2.615537539 -2.615537539 -2.615537539
-2.595247383 -2.595247383 -2.595247383
-2.5975223 -2.5975223 -2.5975223
-2.683032365 -2.683032365 -2.683032365
-2.608431244 -2.608431244 -2.608431244
-2.607919198 -2.607919198 -2.607919198
-2.597984569 -2.597984569 -2.597984569
-2.597147876 -2.597147876 -2.597147876
-2.61099732 -2.61099732 -2.61099732
-2.617385842 -2.617385842 -2.617385842
-2.595425644 -2.595425644 -2.595425644
-2.597532294 -2.597532294 -2.597532294
-2.688311185 -2.688311185 -2.688311185
-2.62723908 -2.62723908 -2.62723908
-2.607363652 -2.607363652 -2.607363652
-2.601914625 -2.601914625 -2.601914625
-2.598018786 -2.598018786 -2.598018786
-2.683192462 -2.683192462 -2.683192462
-2.609947699 -2.609947699 -2.609947699
-2.593110022 -2.593110022 -2.593110022
-2.595797242 -2.595797242 -2.595797242
-2.673461165 -2.673461165 -2.673461165
-2.625071265 -2.625071265 -2.625071265
-2.610041333 -2.610041333 -2.610041333
-2.600343082 -2.600343082 -2.600343082
-2.587107386 -2.587107386 -2.587107386
-2.636084689 -2.636084689 -2.636084689
-2.604926815 -2.604926815 -2.604926815
-2.598857045 -2.598857045 -2.598857045
-2.587504575 -2.587504575 -2.587504575
-2.66851176 -2.66851176 -2.66851176
-2.626371228 -2.626371228 -2.626371228
-2.598531603 -2.598531603 -2.598531603
-2.605903344 -2.605903344 -2.605903344
-2.576896459 -2.576896459 -2.576896459
-2.617678955 -2.617678955 -2.617678955
-2.604730837 -2.604730837 -2.604730837
-2.600090817 -2.600090817 -2.600090817
-2.569508655 -2.569508655 -2.569508655
-2.632839345 -2.632839345 -2.632839345
-2.606231557 -2.606231557 -2.606231557
-2.598867273 -2.598867273 -2.598867273
-2.616577219 -2.616577219 -2.616577219
-3.386468209 -3.386468209 -3.386468209
-2.62160494 -2.62160494 -2.62160494
-2.612095542 -2.612095542 -2.612095542
-2.598277435 -2.598277435 -2.598277435
-2.486386513 -2.486386513 -2.486386513
-2.608064105 -2.608064105 -2.608064105
-2.593486763 -2.593486763 -2.593486763
-2.584611631 -2.584611631 -2.584611631
-2.616581477 -2.616581477 -2.616581477
-2.634066949 -2.634066949 -2.634066949
-2.615509959 -2.615509959 -2.615509959
-2.60166704 -2.60166704 -2.60166704
-2.593502071 -2.593502071 -2.593502071
-2.612008093 -2.612008093 -2.612008093
-2.614481978 -2.614481978 -2.614481978
-2.609589084 -2.609589084 -2.609589084
-2.598020656 -2.598020656 -2.598020656
-2.578641846 -2.578641846 -2.578641846
-2.643408129 -2.643408129 -2.643408129
-2.634654729 -2.634654729 -2.634654729
-2.619832558 -2.619832558 -2.619832558
-2.604462241 -2.604462241 -2.604462241
-2.601262215 -2.601262215 -2.601262215
-2.598690747 -2.598690747 -2.598690747
-2.622907798 -2.622907798 -2.622907798
-2.606419 -2.606419 -2.606419
-2.586670952 -2.586670952 -2.586670952
-2.577899013 -2.577899013 -2.577899013
-2.636172673 -2.636172673 -2.636172673
-2.631373798 -2.631373798 -2.631373798
-2.620675269 -2.620675269 -2.620675269
-2.610691208 -2.610691208 -2.610691208
-2.597424493 -2.597424493 -2.597424493
-2.580503421 -2.580503421 -2.580503421
-2.609682468 -2.609682468 -2.609682468
-2.601232179 -2.601232179 -2.601232179
-2.562912865 -2.562912865 -2.562912865
-3.238009334 -3.238009334 -3.238009334
-2.619488449 -2.619488449 -2.619488449
-2.604300344 -2.604300344 -2.604300344
-2.599977697 -2.599977697 -2.599977697
-2.579145662 -2.579145662 -2.579145662
-2.6451058 -2.6451058 -2.6451058
-2.624189634 -2.624189634 -2.624189634
-2.600838034 -2.600838034 -2.600838034
-2.592093221 -2.592093221 -2.592093221
-3.29053348 -3.29053348 -3.29053348
-2.628253934 -2.628253934 -2.628253934
-2.605351008 -2.605351008 -2.605351008
-2.608660862 -2.608660862 -2.608660862
-2.582524059 -2.582524059 -2.582524059
-2.653630514 -2.653630514 -2.653630514
-2.633154984 -2.633154984 -2.633154984
-2.609228102 -2.609228102 -2.609228102
-2.591345412 -2.591345412 -2.591345412
-2.586025827 -2.586025827 -2.586025827
-2.614850817 -2.614850817 -2.614850817
-2.600368423 -2.600368423 -2.600368423
-2.573049857 -2.573049857 -2.573049857
-2.947881669 -2.947881669 -2.947881669
-2.623036427 -2.623036427 -2.623036427
-2.608013391 -2.608013391 -2.608013391
-2.596344374 -2.596344374 -2.596344374
-2.575755516 -2.575755516 -2.575755516
-2.621625119 -2.621625119 -2.621625119
-2.609808435 -2.609808435 -2.609808435
-2.612407928 -2.612407928 -2.612407928
-2.58049381 -2.58049381 -2.58049381
-2.660932425 -2.660932425 -2.660932425
-2.612370465 -2.612370465 -2.612370465
-2.604424204 -2.604424204 -2.604424204
-2.593370105 -2.593370105 -2.593370105
-2.87877294 -2.87877294 -2.87877294
-2.625736451 -2.625736451 -2.625736451
-2.615607301 -2.615607301 -2.615607301
-2.605218028 -2.605218028 -2.605218028
-2.603637429 -2.603637429 -2.603637429
-3.172921856 -3.172921856 -3.172921856
-2.613926357 -2.613926357 -2.613926357
-2.607485832 -2.607485832 -2.607485832
-2.598064747 -2.598064747 -2.598064747
-2.595473708 -2.595473708 -2.595473708
-2.620739271 -2.620739271 -2.620739271
-2.609264479 -2.609264479 -2.609264479
-2.60352096 -2.60352096 -2.60352096
-2.585380725 -2.585380725 -2.585380725
-2.627871556 -2.627871556 -2.627871556
-2.613307931 -2.613307931 -2.613307931
-2.606880779 -2.606880779 -2.606880779
-2.59005493 -2.59005493 -2.59005493
-3.451109867 -3.451109867 -3.451109867
-2.612450872 -2.612450872 -2.612450872
-2.597330969 -2.597330969 -2.597330969
-2.567191229 -2.567191229 -2.567191229
-3.449816465 -3.449816465 -3.449816465
-2.620134978 -2.620134978 -2.620134978
-2.607025879 -2.607025879 -2.607025879
-2.602680191 -2.602680191 -2.602680191
-3.444250133 -3.444250133 -3.444250133
-2.642246129 -2.642246129 -2.642246129
-2.622931401 -2.622931401 -2.622931401
-2.606070417 -2.606070417 -2.606070417
-2.6592279 -2.6592279 -2.6592279
-3.102379156 -3.102379156 -3.102379156
-2.608908536 -2.608908536 -2.608908536
-2.60178909 -2.60178909 -2.60178909
-2.599193433 -2.599193433 -2.599193433
-3.44926151 -3.44926151 -3.44926151
-2.620908757 -2.620908757 -2.620908757
-2.622821728 -2.622821728 -2.622821728
-2.605740642 -2.605740642 -2.605740642
-2.975166327 -2.975166327 -2.975166327
-2.634522896 -2.634522896 -2.634522896
-2.631930471 -2.631930471 -2.631930471
-2.609748852 -2.609748852 -2.609748852
-2.681017032 -2.681017032 -2.681017032
-3.156626282 -3.156626282 -3.156626282
-2.614757634 -2.614757634 -2.614757634
-2.609015571 -2.609015571 -2.609015571
-2.613737707 -2.613737707 -2.613737707
-2.872205154 -2.872205154 -2.872205154
-2.608231381 -2.608231381 -2.608231381
-2.608150983 -2.608150983 -2.608150983
-2.561466862 -2.561466862 -2.561466862
-2.61632118 -2.61632118 -2.61632118
-2.607063637 -2.607063637 -2.607063637
-2.619049102 -2.619049102 -2.619049102
-2.545797047 -2.545797047 -2.545797047
-2.618219809 -2.618219809 -2.618219809
-2.616098176 -2.616098176 -2.616098176
-2.596316096 -2.596316096 -2.596316096
-2.538743205 -2.538743205 -2.538743205
-2.614166607 -2.614166607 -2.614166607
-2.613915256 -2.613915256 -2.613915256
-2.600925736 -2.600925736 -2.600925736
-2.542451108 -2.542451108 -2.542451108
-2.62049677 -2.62049677 -2.62049677
-2.616772943 -2.616772943 -2.616772943
-2.609534667 -2.609534667 -2.609534667
-2.584471298 -2.584471298 -2.584471298
-3.457936987 -3.457936987 -3.457936987
-2.616988657 -2.616988657 -2.616988657
-2.597956876 -2.597956876 -2.597956876
-2.597634039 -2.597634039 -2.597634039
-2.969314989 -2.969314989 -2.969314989
-2.628532038 -2.628532038 -2.628532038
-2.622996708 -2.622996708 -2.622996708
-2.609079831 -2.609079831 -2.609079831
-2.57682858 -2.57682858 -2.57682858
-2.625609801 -2.625609801 -2.625609801
-2.615919539 -2.615919539 -2.615919539
-2.627936639 -2.627936639 -2.627936639
-2.576308982 -2.576308982 -2.576308982
-3.460368498 -3.460368498 -3.460368498
-2.616548634 -2.616548634 -2.616548634
-2.606362576 -2.606362576 -2.606362576
-2.588982015 -2.588982015 -2.588982015
-2.622856669 -2.622856669 -2.622856669
-2.611838325 -2.611838325 -2.611838325
-2.594373547 -2.594373547 -2.594373547
-2.788961274 -2.788961274 -2.788961274
-2.625009922 -2.625009922 -2.625009922
-2.612085433 -2.612085433 -2.612085433
-2.597481413 -2.597481413 -2.597481413
-3.46395709 -3.46395709 -3.46395709
-2.612052535 -2.612052535 -2.612052535
-2.61087187 -2.61087187 -2.61087187
-2.623396252 -2.623396252 -2.623396252
-3.470196793 -3.470196793 -3.470196793
-2.611705362 -2.611705362 -2.611705362
-2.607875103 -2.607875103 -2.607875103
-2.61852509 -2.61852509 -2.61852509
-3.457204872 -3.457204872 -3.457204872
-2.616037357 -2.616037357 -2.616037357
-2.601641832 -2.601641832 -2.601641832
-2.628340874 -2.628340874 -2.628340874
-3.455085018 -3.455085018 -3.455085018
-2.61387242 -2.61387242 -2.61387242
-2.604609629 -2.604609629 -2.604609629
-2.618794091 -2.618794091 -2.618794091
-3.464551282 -3.464551282 -3.464551282
-2.619227646 -2.619227646 -2.619227646
-2.605850334 -2.605850334 -2.605850334
-2.609961023 -2.609961023 -2.609961023
-3.465026705 -3.465026705 -3.465026705
-2.626250098 -2.626250098 -2.626250098
-2.60998688 -2.60998688 -2.60998688
-2.610570393 -2.610570393 -2.610570393
-3.458015479 -3.458015479 -3.458015479
-2.632060388 -2.632060388 -2.632060388
-2.607820119 -2.607820119 -2.607820119
-2.603056951 -2.603056951 -2.603056951
-3.435155288 -3.435155288 -3.435155288
-2.625304082 -2.625304082 -2.625304082
