x	y	z
-1.912026874 -1.912026874 -1.912026874
-2.008291388 -2.008291388 -2.008291388
-2.107610922 -2.107610922 -2.107610922
-1.439801007 -1.439801007 -1.439801007
-1.548579283 -1.548579283 -1.548579283
-1.653970928 -1.653970928 -1.653970928
-1.725162222 -1.725162222 -1.725162222
-1.174675818 -1.174675818 -1.174675818
-1.259030039 -1.259030039 -1.259030039
-1.374376203 -1.374376203 -1.374376203
-1.460586115 -1.460586115 -1.460586115
-3.689262397 -3.689262397 -3.689262397
-4.152601089 -4.152601089 -4.152601089
-3.571770593 -3.571770593 -3.571770593
-3.757181367 -3.757181367 -3.757181367
-3.570672769 -3.570672769 -3.570672769
-3.585163919 -3.585163919 -3.585163919
-3.614253375 -3.614253375 -3.614253375
-2.343946827 -2.343946827 -2.343946827
-2.456138721 -2.456138721 -2.456138721
-2.558296408 -2.558296408 -2.558296408
-2.654026657 -2.654026657 -2.654026657
-1.767376107 -1.767376107 -1.767376107
-1.889711561 -1.889711561 -1.889711561
-1.987991855 -1.987991855 -1.987991855
-2.089770496 -2.089770496 -2.089770496
-1.421906186 -1.421906186 -1.421906186
-1.535171693 -1.535171693 -1.535171693
-1.635222587 -1.635222587 -1.635222587
-1.713907118 -1.713907118 -1.713907118
-1.163095331 -1.163095331 -1.163095331
-1.361339239 -1.361339239 -1.361339239
-1.449416918 -1.449416918 -1.449416918
-3.605566633 -3.605566633 -3.605566633
-4.118614571 -4.118614571 -4.118614571
-3.543701457 -3.543701457 -3.543701457
-3.310479691 -3.310479691 -3.310479691
-3.533743633 -3.533743633 -3.533743633
-3.547564378 -3.547564378 -3.547564378
-3.585469275 -3.585469275 -3.585469275
-2.319102653 -2.319102653 -2.319102653
-2.431097614 -2.431097614 -2.431097614
-2.539135818 -2.539135818 -2.539135818
-2.629741722 -2.629741722 -2.629741722
-1.747503846 -1.747503846 -1.747503846
-1.86316226 -1.86316226 -1.86316226
-1.968077846 -1.968077846 -1.968077846
-2.072318502 -2.072318502 -2.072318502
-1.404598621 -1.404598621 -1.404598621
-1.518679759 -1.518679759 -1.518679759
-1.620609982 -1.620609982 -1.620609982
-1.701125237 -1.701125237 -1.701125237
-1.148529036 -1.148529036 -1.148529036
-1.347309978 -1.347309978 -1.347309978
-1.439348069 -1.439348069 -1.439348069
-3.571738696 -3.571738696 -3.571738696
-4.083557087 -4.083557087 -4.083557087
-4.583763349 -4.583763349 -4.583763349
-3.273691463 -3.273691463 -3.273691463
-3.498080225 -3.498080225 -3.498080225
-3.511770865 -3.511770865 -3.511770865
-3.551430963 -3.551430963 -3.551430963
-2.290978466 -2.290978466 -2.290978466
-2.405461854 -2.405461854 -2.405461854
-2.510398675 -2.510398675 -2.510398675
-2.607367284 -2.607367284 -2.607367284
-1.722238824 -1.722238824 -1.722238824
-1.849245998 -1.849245998 -1.849245998
-1.949893809 -1.949893809 -1.949893809
-2.054503456 -2.054503456 -2.054503456
-1.388397464 -1.388397464 -1.388397464
-1.507354311 -1.507354311 -1.507354311
-1.605327182 -1.605327182 -1.605327182
-1.685003872 -1.685003872 -1.685003872
-1.135328186 -1.135328186 -1.135328186
-1.329982432 -1.329982432 -1.329982432
-1.428521212 -1.428521212 -1.428521212
-3.544283887 -3.544283887 -3.544283887
-4.045078784 -4.045078784 -4.045078784
-4.564749702 -4.564749702 -4.564749702
-3.224229052 -3.224229052 -3.224229052
-3.447821026 -3.447821026 -3.447821026
-3.480109869 -3.480109869 -3.480109869
-3.523420164 -3.523420164 -3.523420164
-2.265320625 -2.265320625 -2.265320625
-2.37894652 -2.37894652 -2.37894652
-2.490190724 -2.490190724 -2.490190724
-2.589455144 -2.589455144 -2.589455144
-1.701371216 -1.701371216 -1.701371216
-1.824688473 -1.824688473 -1.824688473
-1.931719907 -1.931719907 -1.931719907
-2.036334404 -2.036334404 -2.036334404
-1.3732679 -1.3732679 -1.3732679
-1.495657359 -1.495657359 -1.495657359
-1.589058396 -1.589058396 -1.589058396
-1.667817538 -1.667817538 -1.667817538
-1.118977602 -1.118977602 -1.118977602
-1.324633146 -1.324633146 -1.324633146
-1.412586521 -1.412586521 -1.412586521
-3.527551427 -3.527551427 -3.527551427
-4.011005975 -4.011005975 -4.011005975
-4.482158451 -4.482158451 -4.482158451
-3.200911051 -3.200911051 -3.200911051
-3.424082032 -3.424082032 -3.424082032
-3.441067193 -3.441067193 -3.441067193
-3.495393203 -3.495393203 -3.495393203
-2.231158296 -2.231158296 -2.231158296
-2.352478583 -2.352478583 -2.352478583
-2.465263515 -2.465263515 -2.465263515
-2.568180394 -2.568180394 -2.568180394
-1.683175821 -1.683175821 -1.683175821
-1.810401256 -1.810401256 -1.810401256
-1.916217006 -1.916217006 -1.916217006
-2.022210164 -2.022210164 -2.022210164
-1.359699754 -1.359699754 -1.359699754
-1.480038602 -1.480038602 -1.480038602
-1.574801863 -1.574801863 -1.574801863
-1.6590473 -1.6590473 -1.6590473
-1.101923226 -1.101923226 -1.101923226
-1.312621126 -1.312621126 -1.312621126
-1.394188879 -1.394188879 -1.394188879
-3.51374384 -3.51374384 -3.51374384
-3.962878394 -3.962878394 -3.962878394
-4.457925922 -4.457925922 -4.457925922
-3.173077537 -3.173077537 -3.173077537
-3.387293147 -3.387293147 -3.387293147
-3.413133633 -3.413133633 -3.413133633
-3.464419431 -3.464419431 -3.464419431
-2.205325256 -2.205325256 -2.205325256
-2.329626925 -2.329626925 -2.329626925
-2.44137032 -2.44137032 -2.44137032
-2.544714615 -2.544714615 -2.544714615
-1.66704205 -1.66704205 -1.66704205
-1.796328915 -1.796328915 -1.796328915
-1.899030502 -1.899030502 -1.899030502
-2.006229162 -2.006229162 -2.006229162
-1.346862019 -1.346862019 -1.346862019
-1.464722816 -1.464722816 -1.464722816
-1.556285373 -1.556285373 -1.556285373
-1.644064981 -1.644064981 -1.644064981
-1.088821597 -1.088821597 -1.088821597
-1.296388484 -1.296388484 -1.296388484
-1.383061252 -1.383061252 -1.383061252
-3.488837811 -3.488837811 -3.488837811
-3.92784833 -3.92784833 -3.92784833
-4.382833973 -4.382833973 -4.382833973
-3.13539437 -3.13539437 -3.13539437
-3.35497646 -3.35497646 -3.35497646
-3.373265063 -3.373265063 -3.373265063
-3.441109667 -3.441109667 -3.441109667
-2.175079222 -2.175079222 -2.175079222
-2.308519962 -2.308519962 -2.308519962
-2.420127851 -2.420127851 -2.420127851
-2.521281541 -2.521281541 -2.521281541
-1.646444019 -1.646444019 -1.646444019
-1.776605997 -1.776605997 -1.776605997
-1.889027542 -1.889027542 -1.889027542
-1.989514576 -1.989514576 -1.989514576
-1.332419736 -1.332419736 -1.332419736
-1.446793308 -1.446793308 -1.446793308
-1.539787317 -1.539787317 -1.539787317
-1.632323404 -1.632323404 -1.632323404
-1.078524611 -1.078524611 -1.078524611
-1.282802633 -1.282802633 -1.282802633
-1.369437647 -1.369437647 -1.369437647
-3.460777448 -3.460777448 -3.460777448
-3.877057598 -3.877057598 -3.877057598
-4.32135195 -4.32135195 -4.32135195
-3.147742283 -3.147742283 -3.147742283
-3.313538297 -3.313538297 -3.313538297
-3.340409571 -3.340409571 -3.340409571
-3.408693776 -3.408693776 -3.408693776
-2.148275129 -2.148275129 -2.148275129
-2.290271809 -2.290271809 -2.290271809
-2.403745298 -2.403745298 -2.403745298
-2.497163049 -2.497163049 -2.497163049
-1.629445522 -1.629445522 -1.629445522
-1.757197126 -1.757197126 -1.757197126
-1.868201788 -1.868201788 -1.868201788
-1.97387029 -1.97387029 -1.97387029
-1.314143442 -1.314143442 -1.314143442
-1.427192061 -1.427192061 -1.427192061
-1.523647827 -1.523647827 -1.523647827
-1.614510758 -1.614510758 -1.614510758
-1.063897111 -1.063897111 -1.063897111
-1.264142014 -1.264142014 -1.264142014
-1.362900226 -1.362900226 -1.362900226
-3.424132521 -3.424132521 -3.424132521
-3.830094421 -3.830094421 -3.830094421
-4.304022702 -4.304022702 -4.304022702
-3.420930972 -3.420930972 -3.420930972
-3.282083609 -3.282083609 -3.282083609
-3.305960471 -3.305960471 -3.305960471
-3.377046823 -3.377046823 -3.377046823
-2.122513518 -2.122513518 -2.122513518
-2.260363974 -2.260363974 -2.260363974
-2.38273669 -2.38273669 -2.38273669
-2.475940659 -2.475940659 -2.475940659
-1.610624198 -1.610624198 -1.610624198
-1.738093606 -1.738093606 -1.738093606
-1.851285964 -1.851285964 -1.851285964
-1.958207199 -1.958207199 -1.958207199
-1.286149215 -1.286149215 -1.286149215
-1.415377255 -1.415377255 -1.415377255
-1.510090745 -1.510090745 -1.510090745
-1.599228601 -1.599228601 -1.599228601
-1.047572783 -1.047572783 -1.047572783
-1.244968174 -1.244968174 -1.244968174
-1.353483444 -1.353483444 -1.353483444
-3.38577139 -3.38577139 -3.38577139
-3.789117678 -3.789117678 -3.789117678
-4.252221016 -4.252221016 -4.252221016
-3.379102802 -3.379102802 -3.379102802
-3.243966722 -3.243966722 -3.243966722
-3.273494041 -3.273494041 -3.273494041
-3.345087804 -3.345087804 -3.345087804
-2.09750806 -2.09750806 -2.09750806
-2.230004262 -2.230004262 -2.230004262
-2.359781139 -2.359781139 -2.359781139
-2.456485452 -2.456485452 -2.456485452
-1.592037116 -1.592037116 -1.592037116
-1.719002891 -1.719002891 -1.719002891
-1.833403925 -1.833403925 -1.833403925
-1.941470881 -1.941470881 -1.941470881
-1.269590131 -1.269590131 -1.269590131
-1.400111507 -1.400111507 -1.400111507
-1.496835353 -1.496835353 -1.496835353
-1.589913838 -1.589913838 -1.589913838
-1.215901957 -1.215901957 -1.215901957
-1.340907515 -1.340907515 -1.340907515
-3.346600995 -3.346600995 -3.346600995
-3.762267932 -3.762267932 -3.762267932
-4.171008518 -4.171008518 -4.171008518
-3.331316902 -3.331316902 -3.331316902
-3.209041474 -3.209041474 -3.209041474
-3.240094411 -3.240094411 -3.240094411
-3.30226241 -3.30226241 -3.30226241
-2.072240931 -2.072240931 -2.072240931
-2.20232049 -2.20232049 -2.20232049
-2.332713313 -2.332713313 -2.332713313
-2.431390238 -2.431390238 -2.431390238
-1.571457685 -1.571457685 -1.571457685
-1.700768617 -1.700768617 -1.700768617
-1.816473507 -1.816473507 -1.816473507
-1.922291038 -1.922291038 -1.922291038
-1.252809549 -1.252809549 -1.252809549
-1.379824459 -1.379824459 -1.379824459
-1.482933938 -1.482933938 -1.482933938
-1.577406671 -1.577406671 -1.577406671
-1.336266053 -1.336266053 -1.336266053
-3.311154388 -3.311154388 -3.311154388
-3.707423522 -3.707423522 -3.707423522
-4.128683539 -4.128683539 -4.128683539
-3.29328077 -3.29328077 -3.29328077
-3.175806779 -3.175806779 -3.175806779
-3.207995334 -3.207995334 -3.207995334
-3.276077222 -3.276077222 -3.276077222
-2.046476337 -2.046476337 -2.046476337
-2.17919258 -2.17919258 -2.17919258
-2.306669705 -2.306669705 -2.306669705
-2.416097385 -2.416097385 -2.416097385
-1.550904829 -1.550904829 -1.550904829
-1.68058245 -1.68058245 -1.68058245
-1.801406414 -1.801406414 -1.801406414
-1.904188146 -1.904188146 -1.904188146
-1.233398008 -1.233398008 -1.233398008
-1.362133115 -1.362133115 -1.362133115
-1.469024261 -1.469024261 -1.469024261
-1.566942759 -1.566942759 -1.566942759
-1.325022431 -1.325022431 -1.325022431
-3.275415639 -3.275415639 -3.275415639
-4.086804902 -4.086804902 -4.086804902
-3.24982716 -3.24982716 -3.24982716
-3.141152455 -3.141152455 -3.141152455
-3.178099449 -3.178099449 -3.178099449
-3.249157238 -3.249157238 -3.249157238
-2.019264172 -2.019264172 -2.019264172
-2.156603892 -2.156603892 -2.156603892
-2.282246596 -2.282246596 -2.282246596
-2.395532871 -2.395532871 -2.395532871
-1.532062258 -1.532062258 -1.532062258
-1.661534291 -1.661534291 -1.661534291
-1.785674338 -1.785674338 -1.785674338
-1.889195792 -1.889195792 -1.889195792
-1.216230924 -1.216230924 -1.216230924
-1.348052772 -1.348052772 -1.348052772
-1.460639302 -1.460639302 -1.460639302
-1.555060028 -1.555060028 -1.555060028
-1.305304819 -1.305304819 -1.305304819
-3.24739036 -3.24739036 -3.24739036
-3.640666172 -3.640666172 -3.640666172
-4.081868275 -4.081868275 -4.081868275
-3.202592101 -3.202592101 -3.202592101
-3.102922486 -3.102922486 -3.102922486
-3.147250811 -3.147250811 -3.147250811
-3.221519632 -3.221519632 -3.221519632
-1.993048461 -1.993048461 -1.993048461
-2.134537014 -2.134537014 -2.134537014
-2.258476241 -2.258476241 -2.258476241
-2.370167571 -2.370167571 -2.370167571
-1.51391811 -1.51391811 -1.51391811
-1.643589441 -1.643589441 -1.643589441
-1.768068373 -1.768068373 -1.768068373
-1.871791962 -1.871791962 -1.871791962
-1.198869504 -1.198869504 -1.198869504
-1.335576661 -1.335576661 -1.335576661
-1.449097754 -1.449097754 -1.449097754
-1.54483693 -1.54483693 -1.54483693
-1.296133299 -1.296133299 -1.296133299
-3.154416719 -3.154416719 -3.154416719
-3.207462902 -3.207462902 -3.207462902
-3.570473225 -3.570473225 -3.570473225
-4.053870864 -4.053870864 -4.053870864
-3.166414038 -3.166414038 -3.166414038
-3.069394755 -3.069394755 -3.069394755
-3.112410052 -3.112410052 -3.112410052
-3.191819475 -3.191819475 -3.191819475
-1.968029945 -1.968029945 -1.968029945
-2.116768256 -2.116768256 -2.116768256
-2.241141475 -2.241141475 -2.241141475
-2.349621191 -2.349621191 -2.349621191
-1.493865045 -1.493865045 -1.493865045
-1.625904259 -1.625904259 -1.625904259
-1.749551842 -1.749551842 -1.749551842
-1.856761355 -1.856761355 -1.856761355
-1.185749883 -1.185749883 -1.185749883
-1.323047281 -1.323047281 -1.323047281
-1.434787766 -1.434787766 -1.434787766
-1.52818083 -1.52818083 -1.52818083
-1.283257821 -1.283257821 -1.283257821
-3.150019718 -3.150019718 -3.150019718
-3.187315744 -3.187315744 -3.187315744
-3.580717659 -3.580717659 -3.580717659
-3.973924435 -3.973924435 -3.973924435
-3.125670356 -3.125670356 -3.125670356
-3.037728029 -3.037728029 -3.037728029
-3.079157589 -3.079157589 -3.079157589
-3.161797691 -3.161797691 -3.161797691
-1.942998773 -1.942998773 -1.942998773
-2.089754008 -2.089754008 -2.089754008
-2.218872589 -2.218872589 -2.218872589
-2.329736905 -2.329736905 -2.329736905
-1.474059312 -1.474059312 -1.474059312
-1.610069583 -1.610069583 -1.610069583
-1.731354386 -1.731354386 -1.731354386
-1.838690311 -1.838690311 -1.838690311
-1.164750027 -1.164750027 -1.164750027
-1.308876768 -1.308876768 -1.308876768
-1.416293597 -1.416293597 -1.416293597
-1.516229078 -1.516229078 -1.516229078
-1.278329665 -1.278329665 -1.278329665
-3.151183206 -3.151183206 -3.151183206
-3.179629681 -3.179629681 -3.179629681
-3.51136052 -3.51136052 -3.51136052
-3.95279921 -3.95279921 -3.95279921
-3.08468978 -3.08468978 -3.08468978
-2.992421997 -2.992421997 -2.992421997
-3.049555508 -3.049555508 -3.049555508
-3.13280254 -3.13280254 -3.13280254
-1.918185364 -1.918185364 -1.918185364
-2.067315157 -2.067315157 -2.067315157
-2.195701955 -2.195701955 -2.195701955
-2.310164227 -2.310164227 -2.310164227
-1.453806036 -1.453806036 -1.453806036
-1.590224729 -1.590224729 -1.590224729
-1.714361489 -1.714361489 -1.714361489
-1.821968955 -1.821968955 -1.821968955
-1.155701822 -1.155701822 -1.155701822
-1.293902922 -1.293902922 -1.293902922
-1.401724338 -1.401724338 -1.401724338
-1.502267454 -1.502267454 -1.502267454
-1.267394541 -1.267394541 -1.267394541
-3.172744446 -3.172744446 -3.172744446
-3.145973777 -3.145973777 -3.145973777
-3.503580653 -3.503580653 -3.503580653
-3.914443229 -3.914443229 -3.914443229
-3.041429531 -3.041429531 -3.041429531
-2.956040107 -2.956040107 -2.956040107
-3.018137578 -3.018137578 -3.018137578
-3.098169261 -3.098169261 -3.098169261
-1.892445431 -1.892445431 -1.892445431
-2.043534379 -2.043534379 -2.043534379
-2.171656269 -2.171656269 -2.171656269
-2.289572068 -2.289572068 -2.289572068
-1.433800442 -1.433800442 -1.433800442
-1.568066155 -1.568066155 -1.568066155
-1.696178109 -1.696178109 -1.696178109
-1.800643368 -1.800643368 -1.800643368
-1.138644148 -1.138644148 -1.138644148
-1.273494097 -1.273494097 -1.273494097
-1.390674675 -1.390674675 -1.390674675
-1.48732818 -1.48732818 -1.48732818
-1.249955824 -1.249955824 -1.249955824
-3.137823453 -3.137823453 -3.137823453
-3.174884282 -3.174884282 -3.174884282
-3.476324314 -3.476324314 -3.476324314
-3.896251731 -3.896251731 -3.896251731
-2.997104827 -2.997104827 -2.997104827
-2.92386572 -2.92386572 -2.92386572
-2.987316118 -2.987316118 -2.987316118
-3.069891742 -3.069891742 -3.069891742
-1.868504565 -1.868504565 -1.868504565
-2.010161202 -2.010161202 -2.010161202
-2.148229699 -2.148229699 -2.148229699
-2.264709109 -2.264709109 -2.264709109
-1.414033707 -1.414033707 -1.414033707
-1.54831216 -1.54831216 -1.54831216
-1.678299849 -1.678299849 -1.678299849
-1.782006296 -1.782006296 -1.782006296
-1.119638312 -1.119638312 -1.119638312
-1.254743002 -1.254743002 -1.254743002
-1.373758661 -1.373758661 -1.373758661
-1.474029332 -1.474029332 -1.474029332
-1.24034055 -1.24034055 -1.24034055
-3.136540309 -3.136540309 -3.136540309
-3.160511456 -3.160511456 -3.160511456
-3.445380771 -3.445380771 -3.445380771
-3.838173508 -3.838173508 -3.838173508
-2.955536559 -2.955536559 -2.955536559
-2.895757217 -2.895757217 -2.895757217
-2.954446103 -2.954446103 -2.954446103
-3.041608722 -3.041608722 -3.041608722
-1.840762791 -1.840762791 -1.840762791
-1.983668194 -1.983668194 -1.983668194
-2.124532941 -2.124532941 -2.124532941
-2.241211076 -2.241211076 -2.241211076
-1.395156467 -1.395156467 -1.395156467
-1.529864351 -1.529864351 -1.529864351
-1.655512364 -1.655512364 -1.655512364
-1.769543892 -1.769543892 -1.769543892
-1.108802797 -1.108802797 -1.108802797
-1.230515082 -1.230515082 -1.230515082
-1.357467594 -1.357467594 -1.357467594
-1.462328107 -1.462328107 -1.462328107
-1.217934224 -1.217934224 -1.217934224
-3.14205264 -3.14205264 -3.14205264
-3.18080601 -3.18080601 -3.18080601
-3.410275572 -3.410275572 -3.410275572
-3.803172286 -3.803172286 -3.803172286
-2.909168047 -2.909168047 -2.909168047
-2.862670185 -2.862670185 -2.862670185
-2.92508149 -2.92508149 -2.92508149
-3.011380192 -3.011380192 -3.011380192
-1.81242695 -1.81242695 -1.81242695
-1.958252132 -1.958252132 -1.958252132
-2.100863057 -2.100863057 -2.100863057
-2.216467294 -2.216467294 -2.216467294
-1.377349918 -1.377349918 -1.377349918
-1.511923655 -1.511923655 -1.511923655
-1.636839914 -1.636839914 -1.636839914
-1.752523618 -1.752523618 -1.752523618
-1.067276921 -1.067276921 -1.067276921
-1.211504233 -1.211504233 -1.211504233
-1.338088932 -1.338088932 -1.338088932
-1.448362119 -1.448362119 -1.448362119
-1.208996009 -1.208996009 -1.208996009
-3.146019379 -3.146019379 -3.146019379
-3.164464094 -3.164464094 -3.164464094
-3.371993849 -3.371993849 -3.371993849
-3.767831295 -3.767831295 -3.767831295
-2.866625273 -2.866625273 -2.866625273
-2.827539305 -2.827539305 -2.827539305
-2.896255636 -2.896255636 -2.896255636
-2.984385314 -2.984385314 -2.984385314
-1.784815016 -1.784815016 -1.784815016
-1.934629331 -1.934629331 -1.934629331
-2.078359447 -2.078359447 -2.078359447
-2.191789289 -2.191789289 -2.191789289
-1.353728286 -1.353728286 -1.353728286
-1.49322789 -1.49322789 -1.49322789
-1.619609824 -1.619609824 -1.619609824
-1.73519254 -1.73519254 -1.73519254
-1.075511092 -1.075511092 -1.075511092
-1.156768621 -1.156768621 -1.156768621
-1.323878281 -1.323878281 -1.323878281
-1.433768704 -1.433768704 -1.433768704
-1.183410669 -1.183410669 -1.183410669
-3.146312631 -3.146312631 -3.146312631
-3.199417815 -3.199417815 -3.199417815
-3.337164837 -3.337164837 -3.337164837
-3.734706618 -3.734706618 -3.734706618
-2.811986396 -2.811986396 -2.811986396
-2.793665487 -2.793665487 -2.793665487
-2.868234611 -2.868234611 -2.868234611
-2.956410029 -2.956410029 -2.956410029
-1.75599091 -1.75599091 -1.75599091
-1.911748129 -1.911748129 -1.911748129
-2.057269343 -2.057269343 -2.057269343
-2.171920166 -2.171920166 -2.171920166
-1.333387239 -1.333387239 -1.333387239
-1.474049796 -1.474049796 -1.474049796
-1.605461342 -1.605461342 -1.605461342
-1.718188307 -1.718188307 -1.718188307
-1.072418657 -1.072418657 -1.072418657
-1.315236404 -1.315236404 -1.315236404
-1.419502967 -1.419502967 -1.419502967
-3.151667097 -3.151667097 -3.151667097
-3.187823281 -3.187823281 -3.187823281
-3.302029142 -3.302029142 -3.302029142
-3.700898373 -3.700898373 -3.700898373
-2.779592036 -2.779592036 -2.779592036
-2.758549862 -2.758549862 -2.758549862
-2.838469949 -2.838469949 -2.838469949
-2.929367886 -2.929367886 -2.929367886
-1.730401612 -1.730401612 -1.730401612
-1.889093416 -1.889093416 -1.889093416
-2.035595988 -2.035595988 -2.035595988
-2.152970824 -2.152970824 -2.152970824
-1.314114368 -1.314114368 -1.314114368
-1.455379166 -1.455379166 -1.455379166
-1.589024788 -1.589024788 -1.589024788
-1.703060869 -1.703060869 -1.703060869
-1.05886602 -1.05886602 -1.05886602
-1.300690607 -1.300690607 -1.300690607
-1.408034322 -1.408034322 -1.408034322
-7.15197525 -7.15197525 -7.15197525
-3.167532303 -3.167532303 -3.167532303
-3.264371137 -3.264371137 -3.264371137
-3.675799763 -3.675799763 -3.675799763
-2.743860828 -2.743860828 -2.743860828
-2.719328057 -2.719328057 -2.719328057
-2.809232831 -2.809232831 -2.809232831
-2.899804678 -2.899804678 -2.899804678
-1.705644924 -1.705644924 -1.705644924
-1.867139402 -1.867139402 -1.867139402
-2.013357264 -2.013357264 -2.013357264
-2.133983545 -2.133983545 -2.133983545
-1.296275042 -1.296275042 -1.296275042
-1.436958504 -1.436958504 -1.436958504
-1.572842069 -1.572842069 -1.572842069
-1.686670736 -1.686670736 -1.686670736
-1.03650983 -1.03650983 -1.03650983
-1.285331956 -1.285331956 -1.285331956
-1.392227848 -1.392227848 -1.392227848
-7.00130585 -7.00130585 -7.00130585
-3.153970556 -3.153970556 -3.153970556
-3.230874882 -3.230874882 -3.230874882
-3.648330758 -3.648330758 -3.648330758
-2.706357031 -2.706357031 -2.706357031
-2.686689575 -2.686689575 -2.686689575
-2.778037254 -2.778037254 -2.778037254
-2.869643477 -2.869643477 -2.869643477
-1.681481599 -1.681481599 -1.681481599
-1.84466705 -1.84466705 -1.84466705
-1.989751833 -1.989751833 -1.989751833
-2.112191466 -2.112191466 -2.112191466
-1.276576937 -1.276576937 -1.276576937
-1.419016211 -1.419016211 -1.419016211
-1.558263102 -1.558263102 -1.558263102
-1.665688497 -1.665688497 -1.665688497
-1.022168486 -1.022168486 -1.022168486
-1.269726329 -1.269726329 -1.269726329
-1.37767577 -1.37767577 -1.37767577
-6.892288466 -6.892288466 -6.892288466
-3.152562294 -3.152562294 -3.152562294
-3.211752793 -3.211752793 -3.211752793
-3.618551917 -3.618551917 -3.618551917
-2.666348459 -2.666348459 -2.666348459
-2.652825481 -2.652825481 -2.652825481
-2.746844692 -2.746844692 -2.746844692
-2.840736557 -2.840736557 -2.840736557
-1.656684006 -1.656684006 -1.656684006
-1.819810254 -1.819810254 -1.819810254
-1.966174447 -1.966174447 -1.966174447
-2.091327988 -2.091327988 -2.091327988
-1.26146474 -1.26146474 -1.26146474
-1.401768764 -1.401768764 -1.401768764
-1.540397204 -1.540397204 -1.540397204
-1.652968965 -1.652968965 -1.652968965
-1.007201339 -1.007201339 -1.007201339
-1.260286944 -1.260286944 -1.260286944
-1.363741745 -1.363741745 -1.363741745
-6.793721728 -6.793721728 -6.793721728
-3.147366135 -3.147366135 -3.147366135
-3.208689773 -3.208689773 -3.208689773
-3.599587221 -3.599587221 -3.599587221
-2.626320622 -2.626320622 -2.626320622
-2.614978218 -2.614978218 -2.614978218
-2.71297102 -2.71297102 -2.71297102
-2.81123235 -2.81123235 -2.81123235
-1.63009593 -1.63009593 -1.63009593
-1.797076905 -1.797076905 -1.797076905
-1.937815956 -1.937815956 -1.937815956
-2.073177428 -2.073177428 -2.073177428
-1.240154775 -1.240154775 -1.240154775
-1.385651989 -1.385651989 -1.385651989
-1.523337896 -1.523337896 -1.523337896
-1.638075365 -1.638075365 -1.638075365
-0.994552493 -0.994552493 -0.994552493
-1.240449311 -1.240449311 -1.240449311
-1.348320891 -1.348320891 -1.348320891
-6.674814351 -6.674814351 -6.674814351
-3.166467543 -3.166467543 -3.166467543
-3.169478587 -3.169478587 -3.169478587
-3.588413042 -3.588413042 -3.588413042
-2.584908564 -2.584908564 -2.584908564
-2.579755564 -2.579755564 -2.579755564
-2.667477203 -2.667477203 -2.667477203
-2.78264815 -2.78264815 -2.78264815
-1.605294252 -1.605294252 -1.605294252
-1.773631849 -1.773631849 -1.773631849
-1.915934722 -1.915934722 -1.915934722
-2.050490903 -2.050490903 -2.050490903
-1.219483571 -1.219483571 -1.219483571
-1.370621421 -1.370621421 -1.370621421
-1.503377889 -1.503377889 -1.503377889
-1.622554788 -1.622554788 -1.622554788
-0.982199805 -0.982199805 -0.982199805
-1.226215362 -1.226215362 -1.226215362
-1.335296322 -1.335296322 -1.335296322
-6.582342626 -6.582342626 -6.582342626
-3.163697234 -3.163697234 -3.163697234
-3.156662858 -3.156662858 -3.156662858
-3.526699556 -3.526699556 -3.526699556
-2.543904479 -2.543904479 -2.543904479
-2.54364608 -2.54364608 -2.54364608
-2.628345957 -2.628345957 -2.628345957
-2.748719274 -2.748719274 -2.748719274
-1.579330435 -1.579330435 -1.579330435
-1.749955493 -1.749955493 -1.749955493
-1.894831106 -1.894831106 -1.894831106
-2.029316849 -2.029316849 -2.029316849
-1.198284903 -1.198284903 -1.198284903
-1.354155654 -1.354155654 -1.354155654
-1.483474279 -1.483474279 -1.483474279
-1.607895806 -1.607895806 -1.607895806
-0.970125676 -0.970125676 -0.970125676
-1.210949074 -1.210949074 -1.210949074
-1.320796837 -1.320796837 -1.320796837
-6.424830104 -6.424830104 -6.424830104
-3.161926702 -3.161926702 -3.161926702
-3.193050895 -3.193050895 -3.193050895
-3.483473944 -3.483473944 -3.483473944
-2.49742896 -2.49742896 -2.49742896
-2.506685997 -2.506685997 -2.506685997
-2.604979799 -2.604979799 -2.604979799
-2.706662403 -2.706662403 -2.706662403
-1.553763976 -1.553763976 -1.553763976
-1.72426792 -1.72426792 -1.72426792
-1.874478879 -1.874478879 -1.874478879
-2.008732825 -2.008732825 -2.008732825
-1.178455263 -1.178455263 -1.178455263
-1.336308093 -1.336308093 -1.336308093
-1.465940441 -1.465940441 -1.465940441
-1.591741751 -1.591741751 -1.591741751
-0.95515795 -0.95515795 -0.95515795
-1.196727184 -1.196727184 -1.196727184
-1.308051333 -1.308051333 -1.308051333
-6.344753349 -6.344753349 -6.344753349
-3.13573646 -3.13573646 -3.13573646
-3.204604671 -3.204604671 -3.204604671
-3.450315256 -3.450315256 -3.450315256
-2.45058249 -2.45058249 -2.45058249
-2.474008232 -2.474008232 -2.474008232
-2.566817512 -2.566817512 -2.566817512
-2.682061768 -2.682061768 -2.682061768
-1.527466311 -1.527466311 -1.527466311
-1.700180211 -1.700180211 -1.700180211
-1.854596341 -1.854596341 -1.854596341
-1.987561512 -1.987561512 -1.987561512
-1.158828421 -1.158828421 -1.158828421
-1.317132378 -1.317132378 -1.317132378
-1.449681075 -1.449681075 -1.449681075
-1.576443911 -1.576443911 -1.576443911
-0.938891464 -0.938891464 -0.938891464
-1.176199721 -1.176199721 -1.176199721
-1.293280757 -1.293280757 -1.293280757
-6.203504843 -6.203504843 -6.203504843
-3.127291554 -3.127291554 -3.127291554
-3.160059155 -3.160059155 -3.160059155
-3.402060556 -3.402060556 -3.402060556
-2.403209615 -2.403209615 -2.403209615
-2.439321864 -2.439321864 -2.439321864
-2.536691006 -2.536691006 -2.536691006
-2.658253815 -2.658253815 -2.658253815
-1.502477592 -1.502477592 -1.502477592
-1.676106167 -1.676106167 -1.676106167
-1.831378807 -1.831378807 -1.831378807
-1.96438503 -1.96438503 -1.96438503
-1.139395556 -1.139395556 -1.139395556
-1.299061446 -1.299061446 -1.299061446
-1.433145143 -1.433145143 -1.433145143
-1.55940615 -1.55940615 -1.55940615
-0.922825505 -0.922825505 -0.922825505
-1.158810919 -1.158810919 -1.158810919
-1.279951708 -1.279951708 -1.279951708
-6.098320749 -6.098320749 -6.098320749
-3.153581918 -3.153581918 -3.153581918
-3.200922683 -3.200922683 -3.200922683
-3.366069325 -3.366069325 -3.366069325
-2.37281145 -2.37281145 -2.37281145
-2.408098356 -2.408098356 -2.408098356
-2.504546883 -2.504546883 -2.504546883
-2.633785605 -2.633785605 -2.633785605
-1.479093443 -1.479093443 -1.479093443
-1.65032893 -1.65032893 -1.65032893
-1.806438818 -1.806438818 -1.806438818
-1.944380515 -1.944380515 -1.944380515
-1.120325701 -1.120325701 -1.120325701
-1.277144411 -1.277144411 -1.277144411
-1.415597 -1.415597 -1.415597
-1.541811838 -1.541811838 -1.541811838
-0.908187449 -0.908187449 -0.908187449
-1.263807449 -1.263807449 -1.263807449
-5.996029404 -5.996029404 -5.996029404
-3.164067822 -3.164067822 -3.164067822
-3.19269952 -3.19269952 -3.19269952
-3.33375801 -3.33375801 -3.33375801
-2.327921263 -2.327921263 -2.327921263
-2.368712183 -2.368712183 -2.368712183
-2.473181553 -2.473181553 -2.473181553
-2.604438326 -2.604438326 -2.604438326
-1.454237793 -1.454237793 -1.454237793
-1.625248892 -1.625248892 -1.625248892
-1.78427664 -1.78427664 -1.78427664
-1.916201151 -1.916201151 -1.916201151
-1.101426324 -1.101426324 -1.101426324
-1.259535191 -1.259535191 -1.259535191
-1.397072051 -1.397072051 -1.397072051
-1.522559607 -1.522559607 -1.522559607
-0.894211375 -0.894211375 -0.894211375
-1.25522122 -1.25522122 -1.25522122
-5.884617368 -5.884617368 -5.884617368
-3.157860911 -3.157860911 -3.157860911
-3.192579366 -3.192579366 -3.192579366
-3.292679013 -3.292679013 -3.292679013
-2.278659922 -2.278659922 -2.278659922
-2.334502848 -2.334502848 -2.334502848
-2.442079313 -2.442079313 -2.442079313
-2.572877488 -2.572877488 -2.572877488
-1.426251715 -1.426251715 -1.426251715
-1.604804368 -1.604804368 -1.604804368
-1.756025835 -1.756025835 -1.756025835
-1.895131707 -1.895131707 -1.895131707
-1.083719887 -1.083719887 -1.083719887
-1.241908263 -1.241908263 -1.241908263
-1.379059812 -1.379059812 -1.379059812
-1.506407811 -1.506407811 -1.506407811
-0.877961093 -0.877961093 -0.877961093
-1.242678829 -1.242678829 -1.242678829
-5.781194981 -5.781194981 -5.781194981
-5.930645759 -5.930645759 -5.930645759
-3.25309101 -3.25309101 -3.25309101
-2.24526916 -2.24526916 -2.24526916
-2.301535259 -2.301535259 -2.301535259
-2.409780553 -2.409780553 -2.409780553
-2.545534909 -2.545534909 -2.545534909
-1.399381565 -1.399381565 -1.399381565
-1.580776113 -1.580776113 -1.580776113
-1.740677516 -1.740677516 -1.740677516
-1.876271125 -1.876271125 -1.876271125
-1.063765404 -1.063765404 -1.063765404
-1.223037441 -1.223037441 -1.223037441
-1.360824874 -1.360824874 -1.360824874
-1.492438886 -1.492438886 -1.492438886
-0.862235331 -0.862235331 -0.862235331
-1.224941208 -1.224941208 -1.224941208
-5.814721114 -5.814721114 -5.814721114
-3.173668339 -3.173668339 -3.173668339
-3.253916532 -3.253916532 -3.253916532
-2.204417093 -2.204417093 -2.204417093
-2.269145169 -2.269145169 -2.269145169
-2.375852546 -2.375852546 -2.375852546
-2.508871031 -2.508871031 -2.508871031
-1.373071938 -1.373071938 -1.373071938
-1.557371016 -1.557371016 -1.557371016
-1.717084068 -1.717084068 -1.717084068
-1.85273757 -1.85273757 -1.85273757
-1.043007452 -1.043007452 -1.043007452
-1.201767942 -1.201767942 -1.201767942
-1.342848837 -1.342848837 -1.342848837
-1.476518296 -1.476518296 -1.476518296
-0.845690247 -0.845690247 -0.845690247
-1.217524394 -1.217524394 -1.217524394
-5.259635551 -5.259635551 -5.259635551
-5.72498561 -5.72498561 -5.72498561
-3.214589182 -3.214589182 -3.214589182
-2.160122972 -2.160122972 -2.160122972
-2.234496353 -2.234496353 -2.234496353
-2.343424529 -2.343424529 -2.343424529
-2.479427329 -2.479427329 -2.479427329
-1.348444706 -1.348444706 -1.348444706
-1.533364198 -1.533364198 -1.533364198
-1.692354417 -1.692354417 -1.692354417
-1.837079129 -1.837079129 -1.837079129
-1.024912153 -1.024912153 -1.024912153
-1.184755451 -1.184755451 -1.184755451
-1.326524064 -1.326524064 -1.326524064
-1.459779601 -1.459779601 -1.459779601
-0.827562828 -0.827562828 -0.827562828
-1.205711642 -1.205711642 -1.205711642
-5.466544271 -5.466544271 -5.466544271
-5.613512813 -5.613512813 -5.613512813
-3.186334849 -3.186334849 -3.186334849
-2.117920733 -2.117920733 -2.117920733
-2.194131259 -2.194131259 -2.194131259
-2.312210393 -2.312210393 -2.312210393
-2.44680041 -2.44680041 -2.44680041
-1.323154544 -1.323154544 -1.323154544
-1.508192511 -1.508192511 -1.508192511
-1.666996862 -1.666996862 -1.666996862
-1.820776145 -1.820776145 -1.820776145
-1.005977731 -1.005977731 -1.005977731
-1.16751245 -1.16751245 -1.16751245
-1.310174828 -1.310174828 -1.310174828
-1.442249372 -1.442249372 -1.442249372
-0.812067602 -0.812067602 -0.812067602
-1.183845872 -1.183845872 -1.183845872
-5.357629667 -5.357629667 -5.357629667
-5.504922301 -5.504922301 -5.504922301
-3.183129865 -3.183129865 -3.183129865
-2.080244385 -2.080244385 -2.080244385
-2.158432529 -2.158432529 -2.158432529
-2.280786304 -2.280786304 -2.280786304
-2.417451885 -2.417451885 -2.417451885
-1.297553716 -1.297553716 -1.297553716
-1.484235006 -1.484235006 -1.484235006
-1.644698423 -1.644698423 -1.644698423
-1.798309939 -1.798309939 -1.798309939
-0.986406361 -0.986406361 -0.986406361
-1.147161463 -1.147161463 -1.147161463
-1.288113046 -1.288113046 -1.288113046
-1.42447848 -1.42447848 -1.42447848
-0.797348949 -0.797348949 -0.797348949
-1.171020827 -1.171020827 -1.171020827
-5.212338334 -5.212338334 -5.212338334
-5.41007594 -5.41007594 -5.41007594
-3.166580972 -3.166580972 -3.166580972
-2.038423352 -2.038423352 -2.038423352
-2.123743542 -2.123743542 -2.123743542
-2.251431053 -2.251431053 -2.251431053
-2.387348181 -2.387348181 -2.387348181
-1.272591236 -1.272591236 -1.272591236
-1.461437685 -1.461437685 -1.461437685
-1.620376255 -1.620376255 -1.620376255
-1.77535833 -1.77535833 -1.77535833
-0.966234339 -0.966234339 -0.966234339
-1.129150824 -1.129150824 -1.129150824
-1.273810921 -1.273810921 -1.273810921
-1.408809262 -1.408809262 -1.408809262
-0.781377685 -0.781377685 -0.781377685
-1.153798522 -1.153798522 -1.153798522
-5.175720794 -5.175720794 -5.175720794
-5.329306088 -5.329306088 -5.329306088
-3.154249594 -3.154249594 -3.154249594
-1.996515041 -1.996515041 -1.996515041
-2.089831116 -2.089831116 -2.089831116
-2.222720336 -2.222720336 -2.222720336
-2.358587151 -2.358587151 -2.358587151
-1.247774768 -1.247774768 -1.247774768
-1.438245216 -1.438245216 -1.438245216
-1.601017803 -1.601017803 -1.601017803
-1.751166118 -1.751166118 -1.751166118
-0.946855634 -0.946855634 -0.946855634
-1.106474006 -1.106474006 -1.106474006
-1.256329083 -1.256329083 -1.256329083
-1.393120975 -1.393120975 -1.393120975
-0.766171247 -0.766171247 -0.766171247
-1.136658834 -1.136658834 -1.136658834
-5.071871814 -5.071871814 -5.071871814
-5.237372312 -5.237372312 -5.237372312
-3.225136882 -3.225136882 -3.225136882
-3.172412081 -3.172412081 -3.172412081
-1.956926041 -1.956926041 -1.956926041
-2.055731324 -2.055731324 -2.055731324
-2.192418012 -2.192418012 -2.192418012
-2.33138097 -2.33138097 -2.33138097
-1.223095488 -1.223095488 -1.223095488
-1.413198114 -1.413198114 -1.413198114
-1.576314919 -1.576314919 -1.576314919
-1.728070994 -1.728070994 -1.728070994
-0.928225299 -0.928225299 -0.928225299
-1.089629887 -1.089629887 -1.089629887
-1.238415905 -1.238415905 -1.238415905
-1.376653542 -1.376653542 -1.376653542
-0.751391491 -0.751391491 -0.751391491
-0.87899777 -0.87899777 -0.87899777
-1.120860847 -1.120860847 -1.120860847
-0.606980262 -0.606980262 -0.606980262
-4.911478268 -4.911478268 -4.911478268
-5.163024074 -5.163024074 -5.163024074
-3.187297105 -3.187297105 -3.187297105
-4.500428721 -4.500428721 -4.500428721
-1.919079854 -1.919079854 -1.919079854
-2.021636558 -2.021636558 -2.021636558
-2.159061143 -2.159061143 -2.159061143
-2.304917588 -2.304917588 -2.304917588
-1.197814885 -1.197814885 -1.197814885
-1.389112339 -1.389112339 -1.389112339
-1.557758177 -1.557758177 -1.557758177
-1.703519258 -1.703519258 -1.703519258
-0.909429352 -0.909429352 -0.909429352
-1.07130175 -1.07130175 -1.07130175
-1.223540246 -1.223540246 -1.223540246
-1.362939841 -1.362939841 -1.362939841
-0.736293415 -0.736293415 -0.736293415
-0.873912048 -0.873912048 -0.873912048
-1.095160619 -1.095160619 -1.095160619
-0.599465379 -0.599465379 -0.599465379
-4.808676844 -4.808676844 -4.808676844
-5.068821551 -5.068821551 -5.068821551
-3.139779755 -3.139779755 -3.139779755
-4.44728594 -4.44728594 -4.44728594
-1.877980535 -1.877980535 -1.877980535
-1.987187524 -1.987187524 -1.987187524
-2.127935704 -2.127935704 -2.127935704
-2.278170607 -2.278170607 -2.278170607
-1.17368462 -1.17368462 -1.17368462
-1.366300453 -1.366300453 -1.366300453
-1.535687454 -1.535687454 -1.535687454
-1.683040068 -1.683040068 -1.683040068
-0.890335169 -0.890335169 -0.890335169
-1.053336505 -1.053336505 -1.053336505
-1.207323314 -1.207323314 -1.207323314
-1.343962692 -1.343962692 -1.343962692
-0.719910703 -0.719910703 -0.719910703
-0.860939038 -0.860939038 -0.860939038
-0.592570583 -0.592570583 -0.592570583
-4.709568728 -4.709568728 -4.709568728
-4.981789006 -4.981789006 -4.981789006
-3.147435866 -3.147435866 -3.147435866
-4.376521994 -4.376521994 -4.376521994
-1.837487003 -1.837487003 -1.837487003
-1.952932577 -1.952932577 -1.952932577
-2.094076143 -2.094076143 -2.094076143
-2.248185058 -2.248185058 -2.248185058
-1.14783413 -1.14783413 -1.14783413
-1.344699507 -1.344699507 -1.344699507
-1.514042013 -1.514042013 -1.514042013
-1.662311005 -1.662311005 -1.662311005
-0.870683584 -0.870683584 -0.870683584
-1.035018292 -1.035018292 -1.035018292
-1.191706538 -1.191706538 -1.191706538
-1.327244551 -1.327244551 -1.327244551
-0.704113748 -0.704113748 -0.704113748
-0.846519909 -0.846519909 -0.846519909
-0.580797347 -0.580797347 -0.580797347
-4.611982877 -4.611982877 -4.611982877
-4.908889212 -4.908889212 -4.908889212
-3.118174351 -3.118174351 -3.118174351
-4.313494128 -4.313494128 -4.313494128
-1.79838937 -1.79838937 -1.79838937
-1.918689441 -1.918689441 -1.918689441
-2.06303356 -2.06303356 -2.06303356
-2.21971382 -2.21971382 -2.21971382
-1.122836539 -1.122836539 -1.122836539
-1.322001608 -1.322001608 -1.322001608
-1.491556683 -1.491556683 -1.491556683
-1.64279894 -1.64279894 -1.64279894
-0.850239397 -0.850239397 -0.850239397
-1.017908867 -1.017908867 -1.017908867
-1.176042737 -1.176042737 -1.176042737
-1.310531758 -1.310531758 -1.310531758
-0.685097261 -0.685097261 -0.685097261
-0.83225689 -0.83225689 -0.83225689
-0.570041872 -0.570041872 -0.570041872
-4.520001007 -4.520001007 -4.520001007
-4.817043491 -4.817043491 -4.817043491
-4.941729239 -4.941729239 -4.941729239
-4.253341932 -4.253341932 -4.253341932
-1.758577273 -1.758577273 -1.758577273
-1.88479941 -1.88479941 -1.88479941
-2.032425669 -2.032425669 -2.032425669
-2.192462676 -2.192462676 -2.192462676
-1.096629766 -1.096629766 -1.096629766
-1.298940006 -1.298940006 -1.298940006
-1.469087261 -1.469087261 -1.469087261
-1.621819512 -1.621819512 -1.621819512
-0.829057314 -0.829057314 -0.829057314
-1.000934155 -1.000934155 -1.000934155
-1.15910941 -1.15910941 -1.15910941
-1.294062854 -1.294062854 -1.294062854
-0.670580042 -0.670580042 -0.670580042
-0.817974086 -0.817974086 -0.817974086
-0.557109167 -0.557109167 -0.557109167
-4.409453676 -4.409453676 -4.409453676
-4.729422791 -4.729422791 -4.729422791
-4.873019098 -4.873019098 -4.873019098
-4.174710257 -4.174710257 -4.174710257
-1.718491542 -1.718491542 -1.718491542
-1.85090986 -1.85090986 -1.85090986
-2.00264038 -2.00264038 -2.00264038
-2.163530063 -2.163530063 -2.163530063
-1.071519788 -1.071519788 -1.071519788
-1.275032855 -1.275032855 -1.275032855
-1.44703763 -1.44703763 -1.44703763
-1.601796605 -1.601796605 -1.601796605
-0.809007909 -0.809007909 -0.809007909
-0.983589177 -0.983589177 -0.983589177
-1.140960435 -1.140960435 -1.140960435
-1.279479341 -1.279479341 -1.279479341
-0.654348482 -0.654348482 -0.654348482
-0.803999849 -0.803999849 -0.803999849
-0.541507191 -0.541507191 -0.541507191
-4.304821695 -4.304821695 -4.304821695
-4.64349939 -4.64349939 -4.64349939
-4.799756881 -4.799756881 -4.799756881
-4.115563439 -4.115563439 -4.115563439
-1.674936888 -1.674936888 -1.674936888
-1.817020904 -1.817020904 -1.817020904
-1.969842356 -1.969842356 -1.969842356
-2.133684171 -2.133684171 -2.133684171
-1.046028643 -1.046028643 -1.046028643
-1.250980264 -1.250980264 -1.250980264
-1.425390254 -1.425390254 -1.425390254
-1.581056507 -1.581056507 -1.581056507
-0.789512054 -0.789512054 -0.789512054
-0.966379319 -0.966379319 -0.966379319
-1.123429963 -1.123429963 -1.123429963
-1.263451706 -1.263451706 -1.263451706
-0.641795246 -0.641795246 -0.641795246
-0.788544253 -0.788544253 -0.788544253
-0.529259707 -0.529259707 -0.529259707
-4.198656867 -4.198656867 -4.198656867
-4.568258329 -4.568258329 -4.568258329
-4.715419926 -4.715419926 -4.715419926
-4.061912505 -4.061912505 -4.061912505
-1.633808204 -1.633808204 -1.633808204
-1.782810075 -1.782810075 -1.782810075
-1.936333772 -1.936333772 -1.936333772
-2.104353834 -2.104353834 -2.104353834
-1.019934123 -1.019934123 -1.019934123
-1.226630835 -1.226630835 -1.226630835
-1.404910816 -1.404910816 -1.404910816
-1.560319244 -1.560319244 -1.560319244
-0.770038971 -0.770038971 -0.770038971
-0.946744377 -0.946744377 -0.946744377
-1.105517109 -1.105517109 -1.105517109
-1.248561296 -1.248561296 -1.248561296
-0.626774318 -0.626774318 -0.626774318
-0.772320641 -0.772320641 -0.772320641
-0.515771669 -0.515771669 -0.515771669
-0.436484711 -0.436484711 -0.436484711
-4.070789927 -4.070789927 -4.070789927
-4.427400413 -4.427400413 -4.427400413
-4.61311555 -4.61311555 -4.61311555
-3.972171524 -3.972171524 -3.972171524
-1.592002232 -1.592002232 -1.592002232
-1.74766225 -1.74766225 -1.74766225
-1.905061 -1.905061 -1.905061
-2.07483404 -2.07483404 -2.07483404
-0.993160523 -0.993160523 -0.993160523
-1.202948491 -1.202948491 -1.202948491
-1.382652097 -1.382652097 -1.382652097
-1.539128719 -1.539128719 -1.539128719
-0.751071448 -0.751071448 -0.751071448
-0.925289155 -0.925289155 -0.925289155
-1.088391072 -1.088391072 -1.088391072
-1.230453633 -1.230453633 -1.230453633
-0.612207749 -0.612207749 -0.612207749
-0.757080252 -0.757080252 -0.757080252
-0.503496338 -0.503496338 -0.503496338
-0.423154595 -0.423154595 -0.423154595
-4.341033287 -4.341033287 -4.341033287
-4.583213927 -4.583213927 -4.583213927
-3.300435376 -3.300435376 -3.300435376
-1.552321098 -1.552321098 -1.552321098
-1.7148955 -1.7148955 -1.7148955
-1.87554338 -1.87554338 -1.87554338
-2.042419695 -2.042419695 -2.042419695
-0.967186869 -0.967186869 -0.967186869
-1.179433619 -1.179433619 -1.179433619
-1.355466255 -1.355466255 -1.355466255
-1.517277976 -1.517277976 -1.517277976
-0.731514904 -0.731514904 -0.731514904
-0.904270578 -0.904270578 -0.904270578
-1.071071948 -1.071071948 -1.071071948
-1.207461927 -1.207461927 -1.207461927
-0.595611752 -0.595611752 -0.595611752
-0.7417046 -0.7417046 -0.7417046
-0.490386173 -0.490386173 -0.490386173
-0.411869441 -0.411869441 -0.411869441
-3.720929622 -3.720929622 -3.720929622
-4.26128202 -4.26128202 -4.26128202
-4.466495786 -4.466495786 -4.466495786
-3.289447317 -3.289447317 -3.289447317
-1.512166039 -1.512166039 -1.512166039
-1.684374154 -1.684374154 -1.684374154
-1.847887959 -1.847887959 -1.847887959
-2.014370631 -2.014370631 -2.014370631
-0.940917924 -0.940917924 -0.940917924
-1.156077275 -1.156077275 -1.156077275
-1.332746856 -1.332746856 -1.332746856
-1.496571483 -1.496571483 -1.496571483
-0.714393971 -0.714393971 -0.714393971
-0.887130755 -0.887130755 -0.887130755
-1.053568794 -1.053568794 -1.053568794
-1.192816975 -1.192816975 -1.192816975
-0.580887088 -0.580887088 -0.580887088
-0.726650076 -0.726650076 -0.726650076
-0.475831145 -0.475831145 -0.475831145
-0.400714443 -0.400714443 -0.400714443
-0.334706378 -0.334706378 -0.334706378
-3.780191495 -3.780191495 -3.780191495
-4.174561039 -4.174561039 -4.174561039
-4.385883543 -4.385883543 -4.385883543
-3.225199964 -3.225199964 -3.225199964
-1.474293764 -1.474293764 -1.474293764
-1.646553124 -1.646553124 -1.646553124
-1.81775027 -1.81775027 -1.81775027
-1.986772735 -1.986772735 -1.986772735
-0.915507272 -0.915507272 -0.915507272
-1.128860314 -1.128860314 -1.128860314
-1.313919188 -1.313919188 -1.313919188
-1.476307329 -1.476307329 -1.476307329
-0.695390648 -0.695390648 -0.695390648
-0.869811134 -0.869811134 -0.869811134
-1.035342065 -1.035342065 -1.035342065
-1.178343164 -1.178343164 -1.178343164
-0.564904986 -0.564904986 -0.564904986
-0.711460635 -0.711460635 -0.711460635
-0.463441831 -0.463441831 -0.463441831
-0.38957349 -0.38957349 -0.38957349
-0.334083666 -0.334083666 -0.334083666
-3.611706564 -3.611706564 -3.611706564
-4.088773442 -4.088773442 -4.088773442
-4.299868999 -4.299868999 -4.299868999
-3.175638794 -3.175638794 -3.175638794
-1.431573882 -1.431573882 -1.431573882
-1.60991653 -1.60991653 -1.60991653
-1.7828825 -1.7828825 -1.7828825
-1.958522243 -1.958522243 -1.958522243
-0.891767792 -0.891767792 -0.891767792
-1.105439781 -1.105439781 -1.105439781
-1.292281422 -1.292281422 -1.292281422
-1.456683883 -1.456683883 -1.456683883
-0.676278287 -0.676278287 -0.676278287
-0.852031993 -0.852031993 -0.852031993
-1.017327427 -1.017327427 -1.017327427
-1.162741702 -1.162741702 -1.162741702
-0.547550107 -0.547550107 -0.547550107
-0.697290344 -0.697290344 -0.697290344
-0.450711644 -0.450711644 -0.450711644
-0.379697797 -0.379697797 -0.379697797
-0.325319466 -0.325319466 -0.325319466
-3.529948217 -3.529948217 -3.529948217
-4.005303956 -4.005303956 -4.005303956
-4.15358488 -4.15358488 -4.15358488
-3.135237257 -3.135237257 -3.135237257
-1.391477598 -1.391477598 -1.391477598
-1.573398162 -1.573398162 -1.573398162
-1.756404341 -1.756404341 -1.756404341
-1.927718115 -1.927718115 -1.927718115
-0.866047986 -0.866047986 -0.866047986
-1.082169422 -1.082169422 -1.082169422
-1.272416436 -1.272416436 -1.272416436
-1.434902213 -1.434902213 -1.434902213
-0.656116858 -0.656116858 -0.656116858
-0.834668979 -0.834668979 -0.834668979
-1.000577378 -1.000577378 -1.000577378
-1.146905462 -1.146905462 -1.146905462
-0.531134628 -0.531134628 -0.531134628
-0.682955329 -0.682955329 -0.682955329
-0.438905776 -0.438905776 -0.438905776
-0.367941962 -0.367941962 -0.367941962
-0.312846779 -0.312846779 -0.312846779
-3.438572455 -3.438572455 -3.438572455
-3.921472279 -3.921472279 -3.921472279
-4.080968063 -4.080968063 -4.080968063
-3.1161237 -3.1161237 -3.1161237
-1.351919812 -1.351919812 -1.351919812
-1.537980294 -1.537980294 -1.537980294
-1.725232922 -1.725232922 -1.725232922
-1.900806355 -1.900806355 -1.900806355
-0.841616443 -0.841616443 -0.841616443
-1.05973778 -1.05973778 -1.05973778
-1.252135775 -1.252135775 -1.252135775
-1.411472303 -1.411472303 -1.411472303
-0.63663674 -0.63663674 -0.63663674
-0.817141712 -0.817141712 -0.817141712
-0.983638035 -0.983638035 -0.983638035
-1.128961783 -1.128961783 -1.128961783
-0.515383353 -0.515383353 -0.515383353
-0.669013306 -0.669013306 -0.669013306
-0.426540931 -0.426540931 -0.426540931
-0.551325753 -0.551325753 -0.551325753
-0.355154961 -0.355154961 -0.355154961
-0.306232177 -0.306232177 -0.306232177
-3.344021821 -3.344021821 -3.344021821
-3.79182414 -3.79182414 -3.79182414
-3.990702325 -3.990702325 -3.990702325
-3.550761055 -3.550761055 -3.550761055
-1.313562969 -1.313562969 -1.313562969
-1.505246026 -1.505246026 -1.505246026
-1.69842255 -1.69842255 -1.69842255
-1.873251761 -1.873251761 -1.873251761
-0.816957835 -0.816957835 -0.816957835
-1.036862637 -1.036862637 -1.036862637
-1.22819123 -1.22819123 -1.22819123
-1.391026855 -1.391026855 -1.391026855
-0.617584727 -0.617584727 -0.617584727
-0.799729977 -0.799729977 -0.799729977
-0.966518574 -0.966518574 -0.966518574
-1.109824397 -1.109824397 -1.109824397
-0.499749881 -0.499749881 -0.499749881
-0.655168992 -0.655168992 -0.655168992
-0.413370673 -0.413370673 -0.413370673
-0.540657353 -0.540657353 -0.540657353
-0.346487227 -0.346487227 -0.346487227
-0.296930674 -0.296930674 -0.296930674
-3.245746278 -3.245746278 -3.245746278
-3.709002796 -3.709002796 -3.709002796
-3.920557925 -3.920557925 -3.920557925
-3.501223738 -3.501223738 -3.501223738
-1.271687329 -1.271687329 -1.271687329
-1.47462017 -1.47462017 -1.47462017
-1.666572372 -1.666572372 -1.666572372
-1.846724089 -1.846724089 -1.846724089
-0.792188087 -0.792188087 -0.792188087
-1.013171225 -1.013171225 -1.013171225
-1.203137324 -1.203137324 -1.203137324
-1.372419192 -1.372419192 -1.372419192
-0.598828137 -0.598828137 -0.598828137
-0.782292682 -0.782292682 -0.782292682
-0.949060143 -0.949060143 -0.949060143
-1.094828158 -1.094828158 -1.094828158
-0.484416091 -0.484416091 -0.484416091
-0.639709162 -0.639709162 -0.639709162
-0.770411743 -0.770411743 -0.770411743
-0.40040887 -0.40040887 -0.40040887
-0.529010611 -0.529010611 -0.529010611
-0.335191927 -0.335191927 -0.335191927
-0.286355788 -0.286355788 -0.286355788
-3.130780859 -3.130780859 -3.130780859
-3.623475592 -3.623475592 -3.623475592
-3.779190034 -3.779190034 -3.779190034
-3.450190873 -3.450190873 -3.450190873
-1.231175582 -1.231175582 -1.231175582
-1.443465453 -1.443465453 -1.443465453
-1.633449996 -1.633449996 -1.633449996
-1.8205715 -1.8205715 -1.8205715
-0.767033492 -0.767033492 -0.767033492
-0.990804414 -0.990804414 -0.990804414
-1.185994507 -1.185994507 -1.185994507
-1.353958088 -1.353958088 -1.353958088
-0.580713327 -0.580713327 -0.580713327
-0.765217853 -0.765217853 -0.765217853
-0.931775642 -0.931775642 -0.931775642
-1.078390846 -1.078390846 -1.078390846
-0.469262561 -0.469262561 -0.469262561
